-4.787906 0.003719 1.774902
-4.788629 0.001840 1.778320
-4.788367 -0.009680 1.786621
-4.788205 -0.008601 1.790039
-4.787626 0.004119 1.782227
-4.786903 0.005998 1.785645
-4.786180 0.007877 1.789551
-4.786299 0.008557 1.793457
-4.787184 0.005598 1.800781
-4.786299 0.008557 1.796875
-4.787464 0.005199 1.804688
-4.787906 0.003719 1.808594
-4.787363 -0.007402 1.835449
-4.787201 -0.006322 1.839355
-4.787787 0.003039 1.812500
-4.787345 0.004519 1.815918
-4.786903 0.005998 1.819824
-4.786461 0.007477 1.823242
-4.786741 0.007078 1.827148
-4.786741 0.007078 1.831055
-4.787184 0.005598 1.834961
-4.787626 0.004119 1.838867
-4.787040 -0.005242 1.842773
-4.786921 -0.005923 1.846680
-4.787201 -0.006322 1.850586
-4.788486 -0.009000 1.854492
-4.788486 -0.009000 1.858398
-4.787626 0.004119 1.842285
-4.787345 0.004519 1.846191
-4.787184 0.005598 1.850098
-4.787022 0.006678 1.853516
-4.786461 0.007477 1.857422
-4.786461 0.007477 1.860840
-4.786903 0.005998 1.868652
-4.786180 0.007877 1.864746
-4.788086 -0.009281 1.892090
-4.787040 -0.005242 1.895508
-4.785756 -0.002564 1.899414
-4.785756 -0.002564 1.903320
-4.787787 0.003039 1.872559
-4.788510 0.001160 1.876465
-4.788791 0.000761 1.880371
-4.789071 0.000361 1.884277
-4.788791 0.000761 1.887695
-4.788068 0.002640 1.891602
-4.787626 0.004119 1.895020
-4.786903 0.005998 1.898926
-4.786903 0.005998 1.902832
-4.786479 -0.004443 1.921875
-4.786598 -0.003763 1.914551
-4.786479 -0.004443 1.918457
-4.787763 -0.007121 1.926270
-4.787482 -0.006722 1.929688
-4.786759 -0.004843 1.933594
-4.785313 -0.001085 1.906738
-4.787464 0.005199 1.906250
-4.785875 -0.001884 1.910645
-4.787022 0.006678 1.910156
-4.786461 0.007477 1.914063
-4.786299 0.008557 1.917480
-4.786461 0.007477 1.925293
-4.786299 0.008557 1.921387
-4.786461 0.007477 1.932617
-4.786180 0.007877 1.928711
-4.787040 -0.005242 1.952148
-4.786036 -0.002964 1.944824
-4.786036 -0.002964 1.948242
-4.786921 -0.005923 1.956055
-4.787320 -0.005642 1.959961
-4.786759 -0.004843 1.963867
-4.785875 -0.001884 1.937012
-4.785875 -0.001884 1.940918
-4.787022 0.006678 1.940430
-4.786180 0.007877 1.936523
-4.787464 0.005199 1.944336
-4.787906 0.003719 1.948242
-4.787906 0.003719 1.951660
-4.787626 0.004119 1.955566
-4.787345 0.004519 1.959473
-4.787345 0.004519 1.962891
-4.787320 -0.005642 1.982910
-4.786598 -0.003763 1.967285
-4.786317 -0.003363 1.971191
-4.785756 -0.002564 1.975098
-4.786036 -0.002964 1.978516
-4.786759 -0.004843 1.986328
-4.786479 -0.004443 1.990234
-4.786598 -0.003763 1.994141
-4.787464 0.005199 1.966797
-4.786622 0.006398 1.970703
-4.786461 0.007477 1.974121
-4.786741 0.007078 1.978027
-4.787906 0.003719 1.981934
-4.788187 0.003320 1.985840
-4.787906 0.003719 1.989746
-4.787906 0.003719 1.993164
-4.787626 0.004119 1.997070
-4.787644 -0.007802 2.013184
-4.786036 -0.002964 1.997559
-4.786036 -0.002964 2.001465
-4.786479 -0.004443 2.005371
-4.787201 -0.006322 2.009277
-4.788205 -0.008601 2.017090
-4.788205 -0.008601 2.024414
-4.788205 -0.008601 2.028320
-4.787626 0.004119 2.000977
-4.787345 0.004519 2.004883
-4.787745 0.004799 2.008301
-4.787184 0.005598 2.012207
-4.786741 0.007078 2.019531
-4.786180 0.007877 2.015625
-4.787184 0.005598 2.023438
-4.787022 0.006678 2.027344
-4.786317 -0.003363 2.046875
-4.787763 -0.007121 2.032227
-4.787040 -0.005242 2.035645
-4.786759 -0.004843 2.039551
-4.786317 -0.003363 2.042969
-4.786759 -0.004843 2.050781
-4.786479 -0.004443 2.054688
-4.786759 -0.004843 2.058594
-4.786741 0.007078 2.030762
-4.786180 0.007877 2.034668
-4.787022 0.006678 2.038574
-4.787464 0.005199 2.042480
-4.787626 0.004119 2.046387
-4.787906 0.003719 2.050293
-4.787906 0.003719 2.053711
-4.787626 0.004119 2.057617
-4.787320 -0.005642 2.077637
-4.786036 -0.002964 2.065918
-4.787320 -0.005642 2.062012
-4.786317 -0.003363 2.069824
-4.788367 -0.009680 2.081543
-4.789794 -0.001518 2.084961
-4.790840 -0.005557 2.088867
-4.787906 0.003719 2.061523
-4.788187 0.003320 2.065430
-4.787184 0.005598 2.068848
-4.785875 -0.001884 2.073242
-4.786741 0.007078 2.072266
-4.787022 0.006678 2.076172
-4.787906 0.003719 2.080566
-4.790380 0.007843 2.087891
-4.788205 -0.008601 2.107910
-4.792006 -0.008915 2.093262
-4.791402 -0.006356 2.096680
-4.789956 -0.002598 2.100098
-4.787201 -0.006322 2.111816
-4.788086 -0.009281 2.115723
-4.789071 0.000361 2.103516
-4.792107 0.003686 2.091797
-4.791826 0.004085 2.095703
-4.790219 0.008923 2.099121
-4.787464 0.005199 2.106934
-4.786741 0.007078 2.110352
-4.786461 0.007477 2.114258
-4.786461 0.007477 2.121582
-4.786299 0.008557 2.117676
-4.787201 -0.006322 2.149902
-4.786903 0.005998 2.125488
-4.786741 0.007078 2.129395
-4.786461 0.007477 2.133301
-4.786018 0.008957 2.136719
-4.786461 0.007477 2.140625
-4.786741 0.007078 2.144531
-4.786461 0.007477 2.148438
-4.786461 0.007477 2.151855
-4.787763 -0.007121 2.172363
-4.787644 -0.007802 2.153809
-4.787482 -0.006722 2.157227
-4.787040 -0.005242 2.161133
-4.787040 -0.005242 2.164551
-4.787201 -0.006322 2.168945
-4.787644 -0.007802 2.176270
-4.787022 0.006678 2.155762
-4.787464 0.005199 2.160156
-4.787464 0.005199 2.163574
-4.787184 0.005598 2.167480
-4.786903 0.005998 2.171387
-4.786461 0.007477 2.174805
-4.787022 0.006678 2.178711
-4.786580 0.008158 2.182129
-4.787763 -0.007121 2.203125
-4.788367 -0.009680 2.187988
-4.788086 -0.009281 2.191895
-4.788086 -0.009281 2.195801
-4.787644 -0.007802 2.199219
-4.787763 -0.007121 2.207031
-4.786759 -0.004843 2.210449
-4.786479 -0.004443 2.213867
-4.786299 0.008557 2.186035
-4.786580 0.008158 2.189941
-4.786461 0.007477 2.197754
-4.786018 0.008957 2.193848
-4.786580 0.008158 2.201172
-4.787924 -0.008201 2.233887
-4.787482 -0.006722 2.218262
-4.787644 -0.007802 2.222168
-4.788367 -0.009680 2.226074
-4.787924 -0.008201 2.229980
-4.788205 -0.008601 2.237305
-4.787924 -0.008201 2.241211
-4.787482 -0.006722 2.245117
-4.785738 0.009356 2.216309
-4.785738 0.009356 2.220215
-4.787022 0.006678 2.228027
-4.786180 0.007877 2.224121
-4.786299 0.008557 2.231934
-4.785738 0.009356 2.235352
-4.785738 0.009356 2.247070
-4.786155 -0.002284 2.270996
-4.786759 -0.004843 2.248535
-4.786759 -0.004843 2.252441
-4.786878 -0.004163 2.255859
-4.786036 -0.002964 2.259766
-4.786317 -0.003363 2.274902
-4.786461 0.007477 2.254883
-4.786137 0.009637 2.250488
-4.786461 0.007477 2.258789
-4.786461 0.007477 2.262207
-4.785594 -0.001484 2.263184
-4.786741 0.007078 2.266113
-4.785875 -0.001884 2.267090
-4.786299 0.008557 2.270020
-4.785738 0.009356 2.273438
-4.766982 0.006328 2.307617
-4.774558 -0.004461 2.305176
-4.768165 -0.008951 2.309570
-4.770196 -0.003348 2.304688
-4.767262 0.005928 2.311523
-4.768589 0.001490 2.323242
-4.767424 0.004849 2.315430
-4.767704 0.004449 2.319336
-4.791103 0.005964 2.339355
-4.786479 -0.004443 2.278809
-4.787482 -0.006722 2.283203
-4.787482 -0.006722 2.287109
-4.787763 -0.007121 2.291016
-4.794598 -0.004111 2.302246
-4.787464 0.005199 2.292969
-4.786018 0.008957 2.289063
-4.784710 0.001474 2.304688
-4.779039 -0.004894 2.305664
-4.782117 -0.003330 2.305664
-4.787022 0.006678 2.304688
-4.770178 0.008573 2.307129
-4.771182 0.006294 2.322754
-4.770297 0.009253 2.318848
-4.772066 0.003336 2.327148
-4.785432 -0.000405 2.335938
-4.798381 0.007495 2.389160
-4.798399 -0.004425 2.359863
-4.798680 -0.004825 2.348633
-4.797957 -0.002946 2.344238
-4.798680 -0.004825 2.352539
-4.798960 -0.005224 2.356445
-4.798237 -0.003345 2.363770
-4.798799 -0.004145 2.367676
-4.798399 -0.004425 2.371582
-4.798381 0.007495 2.358398
-4.798662 0.007096 2.347168
-4.798381 0.007495 2.350586
-4.798381 0.007495 2.354492
-4.798381 0.007495 2.362305
-4.798500 0.008175 2.365723
-4.798662 0.007096 2.370117
-4.798518 -0.003745 2.390625
-4.798799 -0.004145 2.375000
-4.798518 -0.003745 2.378906
-4.798960 -0.005224 2.382813
-4.798518 -0.003745 2.386719
-4.798799 -0.004145 2.394531
-4.798399 -0.004425 2.398438
-4.798680 -0.004825 2.402344
-4.798381 0.007495 2.392578
-4.798381 0.007495 2.373535
-4.798662 0.007096 2.377441
-4.798662 0.007096 2.381348
-4.798662 0.007096 2.385254
-4.798381 0.007495 2.396484
-4.798381 0.007495 2.400391
-4.797939 0.008975 2.454102
-4.798518 -0.003745 2.421387
-4.798399 -0.004425 2.405762
-4.798680 -0.004825 2.409668
-4.798680 -0.004825 2.413574
-4.798799 -0.004145 2.417480
-4.798399 -0.004425 2.425293
-4.798518 -0.003745 2.429199
-4.798518 -0.003745 2.432617
-4.798500 0.008175 2.419434
-4.798219 0.008575 2.404297
-4.798219 0.008575 2.407715
-4.798662 0.007096 2.412109
-4.798219 0.008575 2.415527
-4.798381 0.007495 2.423340
-4.798219 0.008575 2.427246
-4.798662 0.007096 2.431152
-4.797957 -0.002946 2.452148
-4.798237 -0.003345 2.440430
-4.797957 -0.002946 2.436523
-4.798518 -0.003745 2.444336
-4.797957 -0.002946 2.448242
-4.797957 -0.002946 2.456055
-4.797957 -0.002946 2.459473
-4.797957 -0.002946 2.463379
-4.798219 0.008575 2.458008
-4.798500 0.008175 2.435059
-4.798500 0.008175 2.438965
-4.798500 0.008175 2.442871
-4.798219 0.008575 2.446289
-4.797939 0.008975 2.450195
-4.797939 0.008975 2.461914
-4.797939 0.008975 2.465332
-4.797658 0.009374 2.515625
-4.798076 -0.002266 2.482910
-4.797957 -0.002946 2.467285
-4.797957 -0.002946 2.471191
-4.798237 -0.003345 2.475098
-4.798356 -0.002665 2.479004
-4.797795 -0.001866 2.486328
-4.797957 -0.002946 2.490234
-4.797795 -0.001866 2.494141
-4.798058 0.009655 2.484863
-4.797658 0.009374 2.469238
-4.797658 0.009374 2.473145
-4.798219 0.008575 2.477051
-4.797939 0.008975 2.480957
-4.798058 0.009655 2.488770
-4.797658 0.009374 2.492676
-4.797795 -0.001866 2.513672
-4.797795 -0.001866 2.498047
-4.797795 -0.001866 2.501953
-4.798076 -0.002266 2.505859
-4.797515 -0.001466 2.509766
-4.797515 -0.001466 2.517090
-4.797515 -0.001466 2.520996
-4.797515 -0.001466 2.524902
-4.797658 0.009374 2.500000
-4.797658 0.009374 2.503906
-4.797634 -0.000786 2.544434
-4.797795 -0.001866 2.528809
-4.797634 -0.000786 2.532715
-4.797234 -0.001067 2.536621
-4.797515 -0.001466 2.540527
-4.797515 -0.001466 2.548340
-4.797795 -0.001866 2.552246
-4.797353 -0.000387 2.555664
-4.797634 -0.000786 2.559570
-4.798058 0.009655 2.530762
-4.797072 0.000013 2.579102
-4.797353 -0.000387 2.563477
-4.797072 0.000013 2.567383
-4.797634 -0.000786 2.571289
-4.796792 0.000413 2.575195
-4.797353 -0.000387 2.583008
-4.797353 -0.000387 2.586914
-4.797072 0.000013 2.590820
-4.797072 0.000013 2.609863
-4.797072 0.000013 2.594238
-4.797072 0.000013 2.598145
-4.797072 0.000013 2.602051
-4.796792 0.000413 2.605957
-4.796630 0.001492 2.613770
-4.796911 0.001093 2.617676
-4.796630 0.001492 2.621094
-4.796911 0.001093 2.640625
-4.797191 0.000693 2.625488
-4.796792 0.000413 2.629395
-4.796911 0.001093 2.632813
-4.796349 0.001892 2.636719
-4.796911 0.001093 2.644531
-4.796630 0.001492 2.648438
-4.796630 0.001492 2.652344
-4.796349 0.001892 2.671875
-4.796486 -0.009348 2.654297
-4.796486 -0.009348 2.662109
-4.796349 0.001892 2.656250
-4.796630 0.001492 2.660156
-4.796069 0.002292 2.664063
-4.796349 0.001892 2.667969
-4.796486 -0.009348 2.669922
-4.796767 -0.009748 2.673828
-4.796069 0.002292 2.675781
-4.796468 0.002572 2.679688
-4.796188 0.002972 2.683105
-4.795907 0.003371 2.702637
-4.796486 -0.009348 2.689453
-4.796486 -0.009348 2.693359
-4.796468 0.002572 2.687500
-4.796468 0.002572 2.690918
-4.796188 0.002972 2.694824
-4.796188 0.002972 2.698730
-4.796486 -0.009348 2.701172
-4.796206 -0.008949 2.705078
-4.796486 -0.009348 2.708984
-4.796206 -0.008949 2.712891
-4.796349 0.001892 2.707031
-4.795907 0.003371 2.710449
-4.796188 0.002972 2.714355
-4.795907 0.003371 2.733887
-4.796206 -0.008949 2.716797
-4.796486 -0.009348 2.720703
-4.795925 -0.008549 2.724609
-4.796206 -0.008949 2.728516
-4.795907 0.003371 2.718262
-4.796188 0.002972 2.722168
-4.796349 0.001892 2.726563
-4.795907 0.003371 2.729980
-4.796044 -0.007869 2.732422
-4.796486 -0.009348 2.736328
-4.795925 -0.008549 2.740234
-4.795925 -0.008549 2.744141
-4.795907 0.003371 2.737793
-4.795907 0.003371 2.741699
-4.796468 0.002572 2.746094
-4.795627 0.003771 2.765137
-4.796044 -0.007869 2.748047
-4.796044 -0.007869 2.751953
-4.795925 -0.008549 2.755859
-4.795764 -0.007469 2.759277
-4.795907 0.003371 2.749512
-4.795627 0.003771 2.753418
-4.795627 0.003771 2.757324
-4.795627 0.003771 2.761230
-4.796044 -0.007869 2.763672
-4.795764 -0.007469 2.767578
-4.795764 -0.007469 2.771484
-4.795764 -0.007469 2.775391
-4.795907 0.003371 2.769043
-4.795746 0.004451 2.772949
-4.795907 0.003371 2.776855
-4.795746 0.004451 2.796387
-4.795764 -0.007469 2.779297
-4.795764 -0.007469 2.783203
-4.795764 -0.007469 2.787109
-4.795764 -0.007469 2.791016
-4.795746 0.004451 2.784668
-4.795764 -0.007469 2.794922
-4.795202 -0.006670 2.798828
-4.795483 -0.007070 2.802734
-4.795483 -0.007070 2.806641
-4.795746 0.004451 2.800293
-4.795465 0.004851 2.780762
-4.795465 0.004851 2.788574
-4.795465 0.004851 2.792480
-4.795303 0.005931 2.804199
-4.795184 0.005250 2.808105
-4.795202 -0.006670 2.826172
-4.795764 -0.007469 2.810547
-4.795321 -0.005990 2.814453
-4.795483 -0.007070 2.818359
-4.795321 -0.005990 2.822266
-4.795321 -0.005990 2.830078
-4.795321 -0.005990 2.833984
-4.795321 -0.005990 2.837891
-4.795465 0.004851 2.812012
-4.795303 0.005931 2.815918
-4.795184 0.005250 2.819824
-4.795303 0.005931 2.823730
-4.795023 0.006330 2.827637
-4.795303 0.005931 2.831543
-4.795023 0.006330 2.835449
-4.795023 0.006330 2.839355
-4.794760 -0.005191 2.857422
-4.795041 -0.005590 2.841797
-4.794760 -0.005191 2.845703
-4.795041 -0.005590 2.849609
-4.794760 -0.005191 2.853516
-4.794760 -0.005191 2.861328
-4.795160 -0.004910 2.865234
-4.794760 -0.005191 2.869141
-4.795303 0.005931 2.843262
-4.794742 0.006730 2.847168
-4.795023 0.006330 2.851074
-4.795023 0.006330 2.854980
-4.795023 0.006330 2.858887
-4.795023 0.006330 2.862793
-4.794462 0.007129 2.866699
-4.794742 0.006730 2.870605
-4.795041 -0.005590 2.893066
-4.794760 -0.005191 2.873047
-4.794760 -0.005191 2.876953
-4.794879 -0.004510 2.880859
-4.794760 -0.005191 2.884766
-4.794879 -0.004510 2.888672
-4.794760 -0.005191 2.896973
-4.794318 -0.003711 2.900391
-4.794742 0.006730 2.874512
-4.794742 0.006730 2.878418
-4.794861 0.007410 2.882324
-4.794580 0.007810 2.886230
-4.794742 0.006730 2.890137
-4.794300 0.008209 2.894043
-4.795023 0.006330 2.898438
-4.794861 0.007410 2.901855
-4.794598 -0.004111 2.920410
-4.794318 -0.003711 2.904297
-4.794598 -0.004111 2.908691
-4.794598 -0.004111 2.912598
-4.794879 -0.004510 2.916504
-4.794879 -0.004510 2.924316
-4.794879 -0.004510 2.928223
-4.794318 -0.003711 2.932129
-4.794462 0.007129 2.906250
-4.794300 0.008209 2.909668
-4.794462 0.007129 2.914063
-4.794462 0.007129 2.917969
-4.794300 0.008209 2.921875
-4.794580 0.007810 2.925781
-4.794300 0.008209 2.929688
-4.794580 0.007810 2.933594
-4.794598 -0.004111 2.952148
-4.794598 -0.004111 2.936035
-4.794598 -0.004111 2.940430
-4.794318 -0.003711 2.944336
-4.794318 -0.003711 2.948242
-4.794318 -0.003711 2.956055
-4.794318 -0.003711 2.959961
-4.794318 -0.003711 2.963867
-4.794300 0.008209 2.937500
-4.794580 0.007810 2.941406
-4.794580 0.007810 2.945801
-4.794138 0.009289 2.949219
-4.794019 0.008609 2.953125
-4.794019 0.008609 2.957031
-4.794019 0.008609 2.960938
-4.794419 0.008889 2.964844
-4.794037 -0.003312 2.967773
-4.794318 -0.003711 2.971680
-4.794318 -0.003711 2.976074
-4.794437 -0.003031 2.979980
-4.794318 -0.003711 2.983887
-4.793876 -0.002232 2.987305
-4.794037 -0.003312 2.991699
-4.794156 -0.002632 2.995605
-4.794419 0.008889 2.969238
-4.794138 0.009289 2.973145
-4.794138 0.009289 2.977051
-4.794019 0.008609 2.980957
-4.794138 0.009289 2.984863
-4.794138 0.009289 2.988770
-4.794138 0.009289 2.992676
-4.794138 0.009289 2.996582
-4.794437 -0.003031 2.999512
-4.794156 -0.002632 3.003418
-4.794156 -0.002632 3.007324
-4.793595 -0.001832 3.011230
-4.794437 -0.003031 3.015625
-4.793876 -0.002232 3.019531
-4.793876 -0.002232 3.023438
-4.793876 -0.002232 3.027344
-4.794138 0.009289 3.000977
-4.793858 0.009689 3.004883
-4.794019 0.008609 3.008789
-4.793858 0.009689 3.016602
-4.793858 0.009689 3.020508
-4.793876 -0.002232 3.031250
-4.793995 -0.001552 3.035156
-4.793595 -0.001832 3.039063
-4.793995 -0.001552 3.042969
-4.793714 -0.001152 3.047363
-4.793595 -0.001832 3.051270
-4.793433 -0.000753 3.055176
-4.793714 -0.001152 3.059082
-4.793858 0.009689 3.028809
-4.793858 0.009689 3.032715
-4.793858 0.009689 3.036621
-4.793714 -0.001152 3.062988
-4.793153 -0.000353 3.066895
-4.793153 -0.000353 3.070801
-4.793153 -0.000353 3.074707
-4.793433 -0.000753 3.079102
-4.793433 -0.000753 3.083008
-4.792872 0.000047 3.086914
-4.792872 0.000047 3.090820
-4.792991 0.000727 3.110840
-4.792991 0.000727 3.094727
-4.792991 0.000727 3.098633
-4.792710 0.001126 3.102539
-4.792710 0.001126 3.106445
-4.792567 -0.009714 3.117188
-4.792991 0.000727 3.114746
-4.792430 0.001526 3.118652
-4.792286 -0.009315 3.141602
-4.792567 -0.009714 3.129395
-4.792549 0.002206 3.122559
-4.792549 0.002206 3.126465
-4.792567 -0.009714 3.145508
-4.792006 -0.008915 3.149414
-4.792405 -0.008634 3.153320
-4.791988 0.003005 3.130371
-4.792268 0.002606 3.134277
-4.791988 0.003005 3.138184
-4.792268 0.002606 3.142578
-4.791988 0.003005 3.146484
-4.791707 0.003405 3.150391
-4.792125 -0.008235 3.169434
-4.792125 -0.008235 3.157227
-4.792405 -0.008634 3.161621
-4.792125 -0.008235 3.165527
-4.792125 -0.008235 3.173340
-4.791963 -0.007155 3.177246
-4.791963 -0.007155 3.181152
-4.792107 0.003686 3.154297
-4.792107 0.003686 3.158203
-4.791545 0.004485 3.162109
-4.791826 0.004085 3.166016
-4.791265 0.004884 3.169922
-4.791826 0.004085 3.174316
-4.791545 0.004485 3.178223
-4.791265 0.004884 3.182129
-4.791402 -0.006356 3.201172
-4.791844 -0.007835 3.185547
-4.791682 -0.006755 3.189453
-4.791682 -0.006755 3.193359
-4.791682 -0.006755 3.197266
-4.791682 -0.006755 3.205566
-4.791402 -0.006356 3.209473
-4.791121 -0.005956 3.213379
-4.791384 0.005565 3.186035
-4.791664 0.005165 3.189941
-4.791103 0.005964 3.193848
-4.791103 0.005964 3.197754
-4.791384 0.005565 3.202148
-4.790941 0.007044 3.206055
-4.791103 0.005964 3.209961
-4.790823 0.006364 3.213867
-4.791121 -0.005956 3.233398
-4.791121 -0.005956 3.217285
-4.791240 -0.005276 3.221191
-4.790959 -0.004876 3.225098
-4.790679 -0.004477 3.229004
-4.790959 -0.004876 3.237305
-4.790959 -0.004876 3.241211
-4.790959 -0.004876 3.245605
-4.790941 0.007044 3.217773
-4.790823 0.006364 3.222168
-4.790823 0.006364 3.226074
-4.790941 0.007044 3.229980
-4.790941 0.007044 3.234375
-4.790823 0.006364 3.238281
-4.790661 0.007444 3.242188
-4.790941 0.007044 3.246094
-4.790959 -0.004876 3.265625
-4.791240 -0.005276 3.249512
-4.790959 -0.004876 3.253418
-4.790679 -0.004477 3.257324
-4.790959 -0.004876 3.261719
-4.791240 -0.005276 3.270020
-4.791121 -0.005956 3.274414
-4.790959 -0.004876 3.278320
-4.790941 0.007044 3.250488
-4.790661 0.007444 3.254395
-4.790941 0.007044 3.258301
-4.790941 0.007044 3.262695
-4.790380 0.007843 3.266602
-4.790380 0.007843 3.270508
-4.790661 0.007444 3.274902
-4.790959 -0.004876 3.294434
-4.791240 -0.005276 3.282227
-4.790959 -0.004876 3.286133
-4.791240 -0.005276 3.290527
-4.790959 -0.004876 3.298340
-4.790959 -0.004876 3.302734
-4.790679 -0.004477 3.306641
-4.790661 0.007444 3.278809
-4.790380 0.007843 3.282715
-4.790941 0.007044 3.287109
-4.790661 0.007444 3.291016
-4.790661 0.007444 3.294922
-4.790941 0.007044 3.299316
-4.790380 0.007843 3.303223
-4.790661 0.007444 3.307129
-4.790398 -0.004077 3.327148
-4.791240 -0.005276 3.311035
-4.790959 -0.004876 3.314941
-4.790679 -0.004477 3.318848
-4.790398 -0.004077 3.322754
-4.790398 -0.004077 3.331055
-4.790798 -0.003797 3.334961
-4.790679 -0.004477 3.339355
-4.790661 0.007444 3.311523
-4.790380 0.007843 3.315430
-4.790380 0.007843 3.319336
-4.790661 0.007444 3.323730
-4.790380 0.007843 3.327637
-4.790661 0.007444 3.331543
-4.790380 0.007843 3.335938
-4.790100 0.008243 3.339844
-4.790517 -0.003397 3.359375
-4.790679 -0.004477 3.343262
-4.790679 -0.004477 3.347656
-4.790798 -0.003797 3.351563
-4.790517 -0.003397 3.355469
-4.790679 -0.004477 3.363770
-4.790517 -0.003397 3.367676
-4.790398 -0.004077 3.372070
-4.790661 0.007444 3.344238
-4.790100 0.008243 3.348145
-4.790380 0.007843 3.352051
-4.790380 0.007843 3.356445
-4.790219 0.008923 3.359863
-4.790499 0.008523 3.364258
-4.790219 0.008923 3.368164
-4.789938 0.009323 3.372070
-4.789956 -0.002598 3.388184
-4.790398 -0.004077 3.375977
-4.790237 -0.002997 3.379883
-4.789956 -0.002598 3.383789
-4.789956 -0.002598 3.392090
-4.790237 -0.002997 3.396484
-4.790075 -0.001918 3.400391
-4.790219 0.008923 3.376465
-4.790219 0.008923 3.380859
-4.790219 0.008923 3.384766
-4.789938 0.009323 3.388672
-4.790219 0.008923 3.393066
-4.789938 0.009323 3.396973
-4.790219 0.008923 3.400879
-4.790075 -0.001918 3.420898
-4.790075 -0.001918 3.404297
-4.790075 -0.001918 3.408691
-4.789794 -0.001518 3.412598
-4.789956 -0.002598 3.416992
-4.789794 -0.001518 3.424805
-4.789794 -0.001518 3.429199
-4.789514 -0.001118 3.433105
-4.789657 0.009722 3.404785
-4.789352 -0.000039 3.453613
-4.789514 -0.001118 3.437012
-4.789794 -0.001518 3.441406
-4.789633 -0.000438 3.445313
-4.789352 -0.000039 3.449219
-4.789352 -0.000039 3.457520
-4.789352 -0.000039 3.461426
-4.788791 0.000761 3.465332
-4.788205 -0.008601 3.489258
-4.787482 -0.006722 3.492676
-4.786759 -0.004843 3.496094
-4.789071 0.000361 3.469727
-4.789071 0.000361 3.474121
-4.788791 0.000761 3.478027
-4.788910 0.001441 3.481934
-4.788068 0.002640 3.485840
-4.788025 0.004400 3.489258
-4.787022 0.006678 3.492676
-4.786580 0.008158 3.496094
-4.779923 -0.007853 3.525391
-4.786155 -0.002284 3.499512
-4.784005 -0.008567 3.509277
-4.783401 -0.006008 3.512695
-4.785152 -0.000005 3.502930
-4.784548 0.002554 3.505859
-4.783825 0.004433 3.509277
-4.783102 0.006312 3.513184
-4.782397 -0.003729 3.516113
-4.781793 -0.001170 3.519531
-4.782498 0.008871 3.516113
-4.780509 0.001508 3.522461
-4.778758 -0.004495 3.528320
-4.779744 0.005147 3.525391
-4.778579 0.008506 3.528320
-4.385884 0.007795 4.183105
-4.392823 -0.004635 4.175781
-4.385383 -0.005086 4.184082
-4.389584 -0.005120 4.180176
-4.387815 0.000798 4.181641
-4.354622 -0.004612 4.215820
-4.368574 0.001009 4.201660
-4.373863 -0.004824 4.195801
-4.370343 -0.004909 4.199707
-4.372655 0.000295 4.197754
-4.384014 0.001112 4.185547
-4.381863 -0.005172 4.187988
-4.377944 -0.005537 4.192383
-4.382364 0.007710 4.187012
-4.380094 0.000746 4.189453
-4.378445 0.007344 4.190918
-4.376294 0.001060 4.193359
-4.374525 0.006978 4.195313
-4.370724 0.007292 4.198730
-4.366924 0.007607 4.203125
-4.366704 -0.005674 4.204102
-4.362342 -0.004561 4.207520
-4.364773 0.001323 4.205566
-4.358822 -0.004646 4.211914
-4.360853 0.000957 4.209473
-4.357172 0.001952 4.212891
-4.363123 0.007921 4.206543
-4.355683 0.007470 4.214844
-4.358923 0.007954 4.210449
-4.305460 -0.005126 4.263672
-4.317423 -0.006869 4.252441
-4.315773 -0.000271 4.253906
-4.309542 -0.005840 4.259766
-4.313623 -0.006554 4.256348
-4.311692 0.000443 4.257324
-4.310042 0.007041 4.258789
-4.307892 0.000757 4.261230
-4.291466 -0.008988 4.277344
-4.295547 -0.009702 4.273438
-4.297578 -0.004098 4.270996
-4.303810 0.001471 4.264648
-4.301379 -0.004413 4.267090
-4.322005 0.005299 4.247559
-4.340788 -0.009553 4.229492
-4.351102 -0.004698 4.219727
-4.344989 -0.009587 4.225586
-4.349452 0.001900 4.221191
-4.346740 -0.003584 4.223145
-4.347521 0.008897 4.222168
-4.343500 -0.004069 4.227539
-4.339138 -0.002956 4.230957
-4.341570 0.002928 4.228516
-4.345090 0.003013 4.224609
-4.343720 0.009212 4.226074
-4.339920 0.009526 4.229980
-4.337107 -0.008559 4.233398
-4.333187 -0.008925 4.237305
-4.335338 -0.002641 4.234863
-4.331257 -0.001928 4.238281
-4.329387 -0.008611 4.241211
-4.325305 -0.007897 4.244629
-4.327456 -0.001613 4.242188
-4.329607 0.004670 4.239746
-4.323536 -0.001979 4.246582
-4.325806 0.004985 4.243652
-4.337488 0.003642 4.232422
-4.333569 0.003276 4.236328
-4.352972 0.001985 4.216797
-4.351322 0.008583 4.218262
-4.321224 -0.007183 4.248535
-4.319855 -0.000985 4.250000
-4.313843 0.006727 4.254883
-4.317924 0.006013 4.251465
-4.287665 -0.008673 4.281250
-4.306242 0.007355 4.262695
-4.293897 -0.003104 4.274902
-4.289816 -0.002390 4.278320
-4.291966 0.003894 4.275879
-4.301880 0.008469 4.266113
-4.299729 0.002185 4.268555
-4.297917 0.009863 4.269531
-4.295648 0.002899 4.272461
-4.084014 -0.006699 4.451660
-4.088138 -0.009173 4.449219
-4.086607 -0.001895 4.449707
-4.076897 -0.009310 4.457031
-4.079490 -0.004506 4.454590
-4.072774 -0.006836 4.459961
-4.065657 -0.009447 4.464844
-4.068531 -0.005043 4.462891
-4.063846 -0.001770 4.465332
-4.062434 0.006189 4.465820
-4.082041 0.002058 4.452148
-4.075366 -0.002032 4.457520
-4.080671 0.008256 4.453125
-4.077679 0.003171 4.455566
-4.070681 0.001241 4.460449
-4.069712 0.007720 4.461426
-4.066838 0.003315 4.463379
-4.073555 0.005645 4.458496
-3.975607 -0.005262 4.526855
-3.993845 -0.003195 4.513672
-4.013333 -0.008006 4.500000
-4.008928 -0.005132 4.502441
-4.007516 0.002826 4.502930
-4.002212 -0.007462 4.507813
-3.997969 -0.005669 4.510742
-4.004524 -0.002259 4.505371
-3.998988 0.008173 4.508789
-4.000400 0.000215 4.508301
-3.996276 0.002689 4.510742
-4.003112 0.005699 4.505859
-3.990971 -0.007599 4.515625
-3.989559 0.000359 4.516113
-3.986848 -0.005125 4.518555
-3.985036 0.002552 4.519043
-3.979731 -0.007736 4.523926
-3.982724 -0.002652 4.521484
-3.978319 0.000222 4.524414
-3.980912 0.005026 4.521973
-3.992152 0.005163 4.514160
-3.988028 0.007637 4.517090
-3.974195 0.002696 4.527344
-3.976907 0.008180 4.524902
-4.036756 0.003670 4.482910
-4.054255 -0.008504 4.472656
-4.050250 -0.005350 4.475098
-4.045565 -0.002077 4.477539
-4.042853 -0.007561 4.479492
-4.041161 0.000796 4.480469
-4.043754 0.005600 4.478027
-4.039630 0.008074 4.480957
-4.031571 -0.005938 4.487305
-4.024573 -0.007869 4.491699
-4.027166 -0.003065 4.489746
-4.035975 -0.008812 4.484375
-4.038568 -0.004008 4.482422
-4.034444 -0.001534 4.485352
-4.030040 0.001340 4.487793
-4.023042 -0.000591 4.492676
-4.020169 -0.004995 4.494629
-4.025354 0.004613 4.490234
-4.018357 0.002682 4.495117
-4.021231 0.007087 4.493164
-4.032751 0.006824 4.485352
-4.028509 0.008618 4.488281
-4.059441 0.001104 4.468262
-4.061253 -0.006574 4.467773
-4.056848 -0.003700 4.470215
-4.058029 0.009062 4.468750
-4.052563 -0.000146 4.472656
-4.051312 0.006732 4.473633
-4.055436 0.004258 4.470703
-4.048439 0.002327 4.475586
-4.046908 0.009605 4.476074
-4.016325 -0.002921 4.497559
-4.011640 0.000352 4.500000
-4.014514 0.004756 4.498047
-4.010109 0.007630 4.500977
-4.246105 -0.009816 4.317383
-4.242143 -0.008422 4.320801
-4.237619 -0.006228 4.323730
-4.240212 -0.001424 4.321777
-4.236088 0.001050 4.324707
-4.222459 -0.006731 4.335938
-4.218497 -0.005337 4.339355
-4.216686 0.002340 4.339844
-4.233376 -0.004435 4.326660
-4.226702 -0.008525 4.332520
-4.229015 -0.003321 4.330566
-4.231845 0.002843 4.327637
-4.227603 0.004637 4.331055
-4.225171 -0.001247 4.333496
-4.220928 0.000547 4.336426
-4.223360 0.006431 4.333984
-4.219117 0.008224 4.337402
-4.215155 0.009618 4.340820
-4.161369 -0.001303 4.389648
-4.166862 -0.009975 4.385254
-4.163180 -0.008981 4.388672
-4.159218 -0.007586 4.392090
-4.157007 -0.000189 4.393066
-4.154975 -0.005793 4.395508
-4.155476 0.007089 4.394043
-4.150613 -0.004679 4.398926
-4.146371 -0.002886 4.402344
-4.148802 0.002998 4.399414
-4.144840 0.004392 4.403320
-4.152764 0.001604 4.395996
-4.151233 0.008882 4.396973
-4.181461 -0.008673 4.372559
-4.196297 -0.006011 4.359375
-4.204179 -0.007039 4.351563
-4.200098 -0.006325 4.355469
-4.198167 0.000672 4.356445
-4.194205 0.002067 4.359863
-4.192054 -0.004217 4.362793
-4.187973 -0.003503 4.366211
-4.212443 0.004134 4.342773
-4.214373 -0.002863 4.342285
-4.211823 -0.009427 4.344727
-4.207861 -0.008033 4.348145
-4.210292 -0.002149 4.345703
-4.208200 0.005928 4.346191
-4.206211 -0.001436 4.349121
-4.204680 0.005842 4.350098
-4.202249 -0.000041 4.353027
-4.184173 -0.003189 4.370117
-4.190404 0.002381 4.363770
-4.192274 0.009064 4.360840
-4.186442 0.003775 4.367188
-4.182080 0.004888 4.370605
-4.200437 0.007636 4.353516
-4.196636 0.007950 4.357422
-4.159557 0.006375 4.390137
-4.180210 -0.001795 4.374023
-4.177498 -0.007279 4.375977
-4.173817 -0.006284 4.379883
-4.175687 0.000399 4.376953
-4.174436 0.007277 4.377930
-4.169574 -0.004491 4.382813
-4.171606 0.001113 4.380371
-4.167643 0.002507 4.383789
-4.165612 -0.003097 4.386230
-4.170194 0.009071 4.380859
-4.163800 0.004581 4.386719
-4.178399 0.005883 4.374512
-4.269647 0.002540 4.296387
-4.279222 -0.006846 4.288574
-4.275540 -0.005851 4.291992
-4.273329 0.001546 4.292969
-4.265065 -0.009627 4.301270
-4.260704 -0.008514 4.304688
-4.258892 -0.000836 4.305664
-4.256860 -0.006440 4.308105
-4.255210 0.000158 4.309082
-4.271178 -0.004738 4.295410
-4.267378 -0.004424 4.299316
-4.265405 0.004334 4.299805
-4.267717 0.009537 4.297363
-4.263254 -0.001950 4.302246
-4.261204 0.004367 4.303711
-4.257080 0.006841 4.306641
-4.287885 0.004608 4.279785
-4.285454 -0.001276 4.282227
-4.283584 -0.007959 4.284668
-4.281772 -0.000282 4.285645
-4.283923 0.006002 4.283203
-4.277691 0.000432 4.289551
-4.279842 0.006716 4.286621
-4.275760 0.007429 4.290527
-4.271798 0.008824 4.293945
-4.250849 0.001272 4.312500
-4.252499 -0.005326 4.311523
-4.248417 -0.004612 4.314941
-4.244293 -0.002138 4.318359
-4.248756 0.009349 4.313477
-4.246725 0.003746 4.315918
-4.242082 0.005259 4.318848
-4.238120 0.006653 4.322266
-4.253118 0.008235 4.310059
-4.233877 0.008446 4.325684
-4.104240 0.002731 4.436035
-4.129179 -0.008992 4.416992
-4.117631 0.009152 4.425293
-4.110014 -0.006340 4.431641
-4.125217 -0.007598 4.420410
-4.116850 -0.003330 4.426758
-4.123405 0.000080 4.420898
-4.120693 -0.005404 4.423340
-4.119281 0.002554 4.423828
-4.114419 -0.009214 4.429199
-4.112607 -0.001536 4.429688
-4.115038 0.004348 4.427246
-4.110796 0.006141 4.430176
-4.108364 0.000257 4.432617
-4.106672 0.008615 4.433105
-4.144220 -0.009169 4.404785
-4.139977 -0.007375 4.408203
-4.135853 -0.004901 4.411133
-4.142128 -0.001092 4.405273
-4.138446 -0.000097 4.409180
-4.131772 -0.004188 4.415039
-4.136915 0.007181 4.409668
-4.130079 0.004170 4.415039
-4.127648 -0.001714 4.417969
-4.125836 0.005964 4.418457
-4.134203 0.001696 4.412109
-4.132392 0.009374 4.413086
-4.140877 0.005787 4.406250
-4.121874 0.007358 4.421875
-4.103459 -0.009750 4.437012
-4.099097 -0.008637 4.440918
-4.105652 -0.005227 4.435059
-4.101809 -0.003153 4.438477
-4.097405 -0.000279 4.440918
-4.100117 0.005205 4.438477
-4.095593 0.007399 4.441406
-4.094693 -0.005763 4.443359
-4.090450 -0.003970 4.446777
-4.092881 0.001914 4.443848
-4.091631 0.008793 4.444824
-4.084795 0.005782 4.450195
-4.088477 0.004788 4.446777
-2.557388 -0.003595 5.020996
-2.560908 -0.003510 5.020996
-2.140852 -0.004341 5.023438
-2.137570 -0.003066 5.022949
-2.126058 -0.008764 5.022461
-2.118976 -0.007174 5.021973
-2.122657 -0.008169 5.022461
-2.133889 -0.002072 5.022949
-2.129459 -0.009358 5.022461
-2.130488 -0.001477 5.022461
-2.127087 -0.000882 5.022461
-2.135197 0.005411 5.022949
-2.165901 -0.009424 5.024902
-2.177013 -0.004007 5.025879
-2.155018 -0.007520 5.024414
-2.151336 -0.006525 5.024414
-2.148335 -0.005650 5.023926
-2.158419 -0.008115 5.024414
-2.162219 -0.008429 5.024902
-2.156165 0.001042 5.024414
-2.149363 0.002232 5.023926
-2.144653 -0.004655 5.023438
-2.145681 0.003226 5.023438
-2.138480 0.004136 5.023438
-2.141881 0.003541 5.023926
-2.152764 0.001637 5.023926
-2.149991 0.009833 5.023926
-2.170330 -0.002137 5.024902
-2.166810 -0.002222 5.025391
-2.159847 0.000048 5.024414
-2.162848 -0.000828 5.024902
-2.173731 -0.002732 5.024902
-2.164276 0.007335 5.024414
-2.167558 0.006059 5.024902
-2.171078 0.006145 5.024902
-2.153792 0.009519 5.023926
-2.160594 0.008329 5.024414
-2.157193 0.008924 5.024414
-2.234932 -0.001520 5.020508
-2.249064 -0.008899 5.009277
-2.252065 -0.009774 5.009277
-2.249531 -0.000218 5.008789
-2.241743 -0.008670 5.009766
-2.244982 -0.008185 5.009277
-2.238656 -0.004274 5.011719
-2.242490 -0.000388 5.009277
-2.245892 -0.000983 5.009277
-2.253212 -0.001212 5.009277
-2.246758 0.007979 5.008789
-2.231217 -0.004725 5.027344
-2.227816 -0.004130 5.027344
-2.203838 0.007074 5.026855
-2.202062 -0.009089 5.026855
-2.198780 -0.007814 5.026367
-2.194979 -0.007500 5.026367
-2.191298 -0.006505 5.025879
-2.187497 -0.006191 5.026367
-2.180814 -0.004321 5.025879
-2.184615 -0.004635 5.025391
-2.196007 0.000382 5.026855
-2.185243 0.002966 5.025879
-2.188644 0.002371 5.025879
-2.192326 0.001376 5.026367
-2.209264 -0.009999 5.026855
-2.205582 -0.009004 5.026855
-2.206491 -0.001802 5.027344
-2.216694 -0.003587 5.027832
-2.210011 -0.001717 5.027344
-2.213412 -0.002312 5.026855
-2.210759 0.006564 5.026855
-2.199527 0.000467 5.026367
-2.202929 -0.000128 5.026855
-2.193073 0.009658 5.026367
-2.196474 0.009063 5.026367
-2.207358 0.007159 5.026855
-2.200556 0.008349 5.026367
-2.178042 0.003875 5.025879
-2.174640 0.004470 5.025391
-2.181842 0.003561 5.025879
-2.243238 0.007893 5.009277
-2.239480 0.006448 5.010254
-2.224924 0.003386 5.027832
-2.220495 -0.003901 5.027344
-2.223896 -0.004496 5.027832
-2.214440 0.005570 5.027344
-2.221242 0.004380 5.027344
-2.218122 0.004575 5.027344
-2.228725 0.003071 5.027832
-2.232083 0.004236 5.026855
-2.024616 -0.009596 5.016602
-2.020653 -0.008202 5.015625
-2.013851 -0.007012 5.015625
-2.010289 -0.005338 5.015137
-2.017252 -0.007607 5.015625
-2.018281 0.000275 5.015625
-2.021962 -0.000720 5.016113
-2.025363 -0.001315 5.016113
-1.985759 0.000706 5.013672
-1.955686 -0.004900 5.009766
-1.959248 -0.006574 5.010742
-1.962530 -0.007849 5.010742
-1.966212 -0.008844 5.011230
-1.967240 -0.000962 5.011230
-1.963839 -0.000367 5.011230
-1.981448 -0.005901 5.012695
-1.982595 0.002661 5.012695
-1.974485 -0.003631 5.012207
-1.977886 -0.004226 5.012207
-1.970922 -0.001957 5.011719
-1.972231 0.005526 5.011719
-1.975232 0.004650 5.012207
-1.978795 0.002975 5.012695
-1.991813 -0.008765 5.013672
-1.984849 -0.006496 5.013184
-1.988531 -0.007490 5.013184
-1.960676 0.001588 5.010254
-1.952285 -0.004305 5.009766
-1.946749 0.006127 5.008789
-1.950150 0.005533 5.009277
-1.953432 0.004257 5.009766
-1.956995 0.002583 5.010254
-1.943186 0.007802 5.008301
-1.961704 0.009470 5.010742
-1.964986 0.008195 5.010742
-1.968549 0.006520 5.011719
-2.003487 -0.004148 5.015137
-1.989440 -0.000289 5.013672
-1.996242 -0.001478 5.014160
-1.992722 -0.001564 5.014160
-1.999805 -0.003153 5.014648
-2.006888 -0.004743 5.015137
-1.997551 0.006004 5.014160
-2.001114 0.004329 5.015137
-1.994269 0.007279 5.013672
-1.987186 0.008868 5.013672
-1.990587 0.008273 5.013672
-2.014998 0.001550 5.015137
-2.008196 0.002740 5.015137
-2.011597 0.002145 5.015625
-2.004634 0.004414 5.014648
-2.016027 0.009432 5.015625
-2.048948 0.009281 5.017578
-2.060777 -0.009262 5.018066
-2.052468 0.009367 5.017578
-2.039809 -0.004893 5.017090
-2.043210 -0.005488 5.017090
-2.046611 -0.006083 5.017578
-2.037156 0.003983 5.017090
-2.029045 -0.002309 5.016602
-2.032446 -0.002904 5.016602
-2.036246 -0.003218 5.016602
-2.026791 0.006848 5.016113
-2.030073 0.005573 5.016602
-2.040557 0.003388 5.017090
-2.033874 0.005258 5.016602
-2.058404 -0.000785 5.018066
-2.053694 -0.007672 5.017578
-2.050412 -0.006397 5.017090
-2.057376 -0.008667 5.018066
-2.051321 0.000804 5.017578
-2.048039 0.002080 5.017090
-2.061805 -0.001380 5.018066
-2.054722 0.000210 5.017578
-2.055750 0.008091 5.018066
-2.043958 0.002793 5.017090
-2.094446 -0.001131 5.020020
-2.079371 -0.005154 5.019043
-2.068887 -0.002969 5.018555
-2.072288 -0.003564 5.018555
-2.082653 -0.006429 5.019531
-2.086734 -0.007143 5.019531
-2.075970 -0.004559 5.018555
-2.076998 0.003323 5.019043
-2.089855 -0.007338 5.019531
-2.093417 -0.009013 5.020020
-2.096819 -0.009608 5.020508
-2.101528 -0.002720 5.020508
-2.097847 -0.001726 5.020508
-2.095593 0.007431 5.020020
-2.091164 0.000144 5.019531
-2.087482 0.001139 5.019531
-2.084081 0.001734 5.019531
-2.080518 0.003408 5.018555
-2.088791 0.008621 5.019531
-2.091792 0.007746 5.020020
-2.073317 0.004318 5.018555
-2.065206 -0.001975 5.018066
-2.066515 0.005507 5.018555
-2.062833 0.006502 5.018066
-2.059670 0.008457 5.017578
-2.069916 0.004913 5.018555
-2.081309 0.009930 5.019531
-2.023109 0.007842 5.016113
-2.019708 0.008437 5.015625
-2.106077 0.005247 5.020508
-2.108211 -0.004590 5.021484
-2.112012 -0.004905 5.020996
-2.104929 -0.003315 5.020996
-2.115694 -0.005899 5.021484
-2.116722 0.001983 5.021484
-2.113040 0.002977 5.021484
-2.109359 0.003972 5.020996
-2.098994 0.006836 5.020020
-2.102557 0.005162 5.020508
-2.124433 0.007995 5.021973
-2.123524 0.000793 5.021973
-2.119842 0.001788 5.021484
-2.121032 0.008590 5.022461
-2.127834 0.007400 5.022461
-2.131516 0.006405 5.022461
-2.361057 -0.001850 5.027832
-2.364458 -0.002445 5.027832
-2.346026 -0.007633 5.027344
-2.339104 -0.007123 5.027344
-2.335304 -0.006809 5.027344
-2.342225 -0.007318 5.027344
-2.349707 -0.008627 5.027832
-2.353227 -0.008542 5.027344
-2.343253 0.000563 5.027344
-2.346654 -0.000032 5.027344
-2.356509 -0.009817 5.028320
-2.360029 -0.009732 5.027832
-2.367978 -0.002360 5.027832
-2.354323 0.007740 5.027344
-2.357376 -0.000855 5.027344
-2.350455 -0.000346 5.027344
-2.353856 -0.000941 5.027832
-2.358123 0.007426 5.027344
-2.361524 0.006831 5.027344
-2.400372 0.002489 5.028320
-2.389583 -0.005087 5.028320
-2.400025 -0.005511 5.028320
-2.385783 -0.004773 5.028320
-2.378581 -0.003864 5.028320
-2.375180 -0.003269 5.028320
-2.371779 -0.002674 5.027832
-2.382382 -0.004178 5.028320
-2.379329 0.004418 5.028320
-2.382849 0.004503 5.027832
-2.375928 0.005013 5.027832
-2.364925 0.006236 5.027832
-2.368726 0.005922 5.027344
-2.372127 0.005327 5.027832
-2.396852 0.002404 5.028320
-2.389651 0.003313 5.028320
-2.393451 0.002999 5.028320
-2.386250 0.003908 5.028320
-2.277666 -0.009696 5.027832
-2.288507 -0.009839 5.026855
-2.281186 -0.009610 5.027344
-2.285734 -0.001643 5.026855
-2.292655 -0.002153 5.026855
-2.289254 -0.001558 5.026855
-2.260295 -0.002801 5.009766
-2.263458 -0.004757 5.010742
-2.264205 0.003525 5.010254
-2.256894 -0.002207 5.009766
-2.257641 0.006075 5.009277
-2.250440 0.006984 5.009277
-2.253841 0.006389 5.009277
-2.261042 0.005480 5.009277
-2.266664 -0.008472 5.022461
-2.267140 -0.005751 5.025879
-2.270464 -0.008786 5.027344
-2.273984 -0.008701 5.027344
-2.271212 -0.000505 5.027344
-2.267930 0.000770 5.026855
-2.286363 0.005958 5.027344
-2.274732 -0.000420 5.026855
-2.278133 -0.001015 5.027344
-2.281653 -0.000929 5.026855
-2.272121 0.006697 5.027832
-2.275641 0.006782 5.027344
-2.279161 0.006867 5.027344
-2.282562 0.006272 5.027344
-2.268439 0.007691 5.027344
-2.318647 0.004167 5.026367
-2.310298 -0.003486 5.026855
-2.306897 -0.002891 5.026855
-2.299576 -0.002662 5.026855
-2.303377 -0.002977 5.026855
-2.296456 -0.002467 5.026855
-2.296804 0.005534 5.026855
-2.300324 0.005619 5.026855
-2.304124 0.005305 5.026855
-2.328221 -0.005219 5.026855
-2.317500 -0.004396 5.026855
-2.314098 -0.003801 5.026855
-2.321300 -0.004710 5.026855
-2.324421 -0.004905 5.026855
-2.331622 -0.005814 5.026855
-2.321648 0.003291 5.026855
-2.325449 0.002977 5.026855
-2.311326 0.004396 5.026855
-2.314846 0.004481 5.026855
-2.307644 0.005390 5.026367
-2.289883 0.006043 5.027344
-2.293403 0.006129 5.026855
-2.339571 0.001558 5.027344
-2.332370 0.002467 5.026855
-2.336051 0.001473 5.027344
-2.328850 0.002382 5.026855
-2.340319 0.009839 5.026855
-2.343839 0.009925 5.026855
-2.347521 0.008930 5.026855
-2.350922 0.008335 5.027344
-2.443030 -0.008127 5.027832
-2.446431 -0.008722 5.028320
-2.449951 -0.008637 5.027832
-2.475738 0.000523 5.026367
-2.468070 -0.007249 5.026367
-2.460911 -0.008100 5.027344
-2.453590 -0.007871 5.027344
-2.457110 -0.007786 5.027344
-2.450299 -0.000636 5.027832
-2.453938 0.000130 5.027344
-2.464150 -0.007615 5.026855
-2.457739 -0.000184 5.027344
-2.461259 -0.000099 5.026855
-2.482431 -0.007308 5.025879
-2.471471 -0.007844 5.026367
-2.474710 -0.007359 5.026367
-2.478511 -0.007674 5.026367
-2.485951 -0.007222 5.025879
-2.479258 0.000608 5.025879
-2.469046 0.008353 5.026367
-2.464779 -0.000014 5.026855
-2.468299 0.000071 5.026855
-2.472218 0.000437 5.026367
-2.465526 0.008268 5.026855
-2.472566 0.008438 5.026367
-2.476086 0.008523 5.026367
-2.432885 0.008018 5.028320
-2.428389 -0.007669 5.028320
-2.414147 -0.006930 5.028320
-2.421468 -0.007159 5.028320
-2.425217 0.000247 5.028320
-2.421816 0.000842 5.028320
-2.407574 0.001580 5.028320
-2.411723 0.009267 5.028320
-2.419043 0.009038 5.028320
-2.415243 0.009352 5.028320
-2.439858 -0.000211 5.028320
-2.435310 -0.008179 5.028320
-2.431790 -0.008264 5.028320
-2.439230 -0.007813 5.028320
-2.429017 -0.000068 5.028320
-2.432656 0.000698 5.028320
-2.443378 -0.000126 5.028320
-2.436338 -0.000297 5.028320
-2.436686 0.007704 5.028320
-2.429365 0.007933 5.028320
-2.426245 0.008128 5.028320
-2.404802 0.009776 5.028320
-2.451047 0.007646 5.027832
-2.446898 -0.000041 5.027832
-2.443607 0.007195 5.028320
-2.440206 0.007789 5.027832
-2.447646 0.008241 5.027344
-2.458087 0.007816 5.027344
-2.454567 0.007731 5.027832
-2.461607 0.007902 5.027344
-2.518149 -0.005494 5.023438
-2.496511 -0.006966 5.024902
-2.500031 -0.006881 5.024902
-2.503551 -0.006796 5.024902
-2.521550 -0.006089 5.023926
-2.510990 -0.006345 5.024414
-2.514510 -0.006259 5.024414
-2.507589 -0.005750 5.023926
-2.507818 0.001571 5.024414
-2.514858 0.001741 5.023926
-2.511338 0.001656 5.024414
-2.518378 0.001827 5.023926
-2.493738 0.001230 5.024902
-2.489471 -0.007137 5.025391
-2.492991 -0.007052 5.025391
-2.482779 0.000693 5.025879
-2.486018 0.001178 5.025391
-2.489819 0.000864 5.025391
-2.500778 0.001400 5.024902
-2.496859 0.001034 5.025391
-2.494086 0.009231 5.025391
-2.490167 0.008865 5.025391
-2.479326 0.009008 5.025879
-2.486528 0.008099 5.025879
-2.483126 0.008694 5.025879
-2.511686 0.009657 5.024414
-2.504298 0.001486 5.024902
-2.497207 0.009035 5.024902
-2.501126 0.009401 5.024902
-2.504646 0.009486 5.024902
-2.508047 0.008892 5.024902
-2.539550 -0.005382 5.022461
-2.525189 -0.005323 5.023438
-2.528590 -0.005918 5.023438
-2.532629 -0.004872 5.022461
-2.543189 -0.004616 5.021973
-2.535630 -0.005748 5.022949
-2.532577 0.002848 5.022949
-2.522298 0.002193 5.023438
-2.525418 0.001997 5.023438
-2.529057 0.002763 5.022949
-2.536497 0.003214 5.022461
-2.553868 -0.003680 5.020996
-2.546428 -0.004131 5.021973
-2.550348 -0.003765 5.021484
-2.540017 0.003299 5.022461
-2.547057 0.003470 5.021973
-2.543537 0.003385 5.021973
-2.554216 0.004321 5.021484
-2.550577 0.003555 5.021484
-2.515206 0.009742 5.023926
-2.586372 0.007809 5.018066
-2.590292 0.008175 5.018066
-2.578398 -0.009723 5.019531
-2.581918 -0.009638 5.019043
-2.571587 -0.002573 5.020020
-2.564547 -0.002744 5.020508
-2.568067 -0.002659 5.020508
-2.579146 -0.001442 5.019043
-2.575226 -0.001808 5.019531
-2.568534 0.006022 5.020020
-2.572335 0.005708 5.020020
-2.596355 -0.007256 5.017090
-2.589477 -0.008507 5.018555
-2.592835 -0.007342 5.017578
-2.585838 -0.009272 5.018555
-2.600275 -0.006890 5.017090
-2.589544 -0.000106 5.018066
-2.596703 0.000744 5.017090
-2.593464 0.000260 5.017578
-2.582385 -0.000957 5.018555
-2.586024 -0.000192 5.018066
-2.583014 0.006644 5.019043
-2.575693 0.006873 5.019043
-2.579494 0.006559 5.019043
-2.628749 -0.002407 5.013672
-2.635679 -0.008877 5.012695
-2.639599 -0.008511 5.012207
-2.636027 -0.000876 5.012695
-2.607153 -0.005640 5.016113
-2.614712 -0.004509 5.015137
-2.610792 -0.004875 5.015625
-2.618351 -0.003743 5.014648
-2.632040 -0.009643 5.013184
-2.632388 -0.001642 5.013184
-2.625229 -0.002493 5.013672
-2.621871 -0.003658 5.014648
-2.622057 0.005423 5.013672
-2.625458 0.004828 5.013672
-2.629097 0.005593 5.013672
-2.607901 0.002641 5.016113
-2.603633 -0.005725 5.016113
-2.603981 0.002275 5.016113
-2.600342 0.001510 5.017090
-2.611421 0.002727 5.015625
-2.604610 0.009877 5.016602
-2.593931 0.008941 5.017090
-2.597451 0.009026 5.017090
-2.618299 0.003977 5.014648
-2.614779 0.003892 5.015137
-2.674841 -0.009418 5.007324
-2.678642 -0.009733 5.007324
-2.667911 -0.002949 5.008301
-2.664672 -0.003433 5.008789
-2.671550 -0.002183 5.007813
-2.700263 0.003660 5.003906
-2.696437 -0.006186 5.004883
-2.692917 -0.006271 5.004883
-2.685639 -0.007802 5.005859
-2.689159 -0.007717 5.005859
-2.685987 0.000199 5.005859
-2.682000 -0.008568 5.006348
-2.682467 0.000113 5.005859
-2.678828 -0.000652 5.006836
-2.675189 -0.001418 5.007324
-2.689626 0.000964 5.005371
-2.678777 0.007068 5.006836
-2.682815 0.008114 5.005859
-2.686055 0.008599 5.005859
-2.707235 -0.004570 5.003906
-2.703715 -0.004655 5.003906
-2.699957 -0.006101 5.004395
-2.714114 -0.003319 5.002930
-2.710594 -0.003404 5.002930
-2.703664 0.003065 5.003906
-2.707303 0.003831 5.003418
-2.696505 0.002215 5.004395
-2.692866 0.001449 5.005371
-2.689694 0.009365 5.005371
-2.632736 0.006359 5.013184
-2.653755 -0.005730 5.010254
-2.646477 -0.007261 5.011230
-2.642838 -0.008026 5.011719
-2.642905 0.000374 5.011719
-2.650116 -0.006495 5.010742
-2.657394 -0.004964 5.009766
-2.646544 0.001139 5.011230
-2.650464 0.001505 5.010742
-2.640014 0.007890 5.012207
-2.639547 -0.000791 5.012207
-2.636094 0.007524 5.012207
-2.643372 0.009055 5.011230
-2.647173 0.008741 5.011230
-2.664620 0.004287 5.008789
-2.660633 -0.004480 5.009277
-2.660981 0.003521 5.009277
-2.653822 0.002670 5.010254
-2.657461 0.003436 5.009766
-2.668378 0.005732 5.007813
-2.671898 0.005818 5.007813
-2.675257 0.006983 5.006836
-2.789199 -0.004886 4.993164
-2.764126 -0.009964 4.996582
-2.767765 -0.009199 4.996094
-2.771404 -0.008433 4.995605
-2.785441 -0.006332 4.994141
-2.775043 -0.007668 4.995117
-2.778563 -0.007582 4.995117
-2.782040 -0.005737 4.994141
-2.778630 0.000818 4.995117
-2.781989 0.001983 4.993652
-2.785908 0.002349 4.993652
-2.831848 -0.009542 4.986328
-2.806766 -0.008660 4.990723
-2.803127 -0.009426 4.991211
-2.810405 -0.007895 4.990234
-2.803475 -0.001425 4.991211
-2.807114 -0.000659 4.990723
-2.799903 0.006210 4.991211
-2.792838 -0.004121 4.992676
-2.796197 -0.002956 4.992188
-2.799717 -0.002870 4.992188
-2.789267 0.003514 4.993164
-2.792506 0.003999 4.992676
-2.796545 0.005045 4.992188
-2.821160 -0.004518 4.988281
-2.813763 -0.006729 4.989258
-2.817802 -0.005683 4.988770
-2.813830 0.001671 4.989258
-2.824918 -0.003073 4.987305
-2.817869 0.002717 4.988770
-2.821227 0.003882 4.987793
-2.810472 0.000506 4.989746
-2.803542 0.006976 4.990723
-2.810539 0.008906 4.989746
-2.806900 0.008141 4.990234
-2.853145 0.006010 4.981934
-2.863766 -0.007414 4.979980
-2.860289 -0.009260 4.980957
-2.867686 -0.007048 4.979980
-2.860475 -0.000179 4.980469
-2.863714 0.000306 4.980469
-2.856784 0.006776 4.981445
-2.842603 -0.006166 4.984375
-2.838964 -0.006932 4.984863
-2.835206 -0.008377 4.985840
-2.835274 0.000023 4.985352
