0.080824 -0.018150 1.085938
0.079898 -0.016653 1.099609
0.079898 -0.016653 1.095215
0.081303 0.018138 1.042969
0.080581 0.001288 1.046387
0.081749 -0.000856 1.041992
0.082574 -0.011971 1.041504
0.081305 -0.000653 1.037598
0.081851 -0.010029 1.050293
0.082130 -0.011768 1.045898
0.081064 -0.000006 1.050781
0.081062 0.018785 1.038574
0.081646 0.008317 1.042480
0.081405 0.008965 1.038086
0.078385 0.014103 1.051758
0.079553 0.011959 1.047363
0.081266 0.000438 1.060059
0.081648 -0.010473 1.059570
0.081166 -0.009179 1.055176
0.081749 -0.000856 1.055176
0.081407 -0.009826 1.068359
0.081407 -0.009826 1.063965
0.081064 -0.000006 1.064453
0.077903 0.015397 1.056152
0.077662 0.016044 1.065430
0.077218 0.016247 1.061035
0.078245 0.024367 1.052246
0.079412 0.022223 1.047852
0.078245 0.024367 1.065918
0.078144 0.014750 1.069824
0.081064 -0.000006 1.073242
0.081407 -0.009826 1.072754
0.081990 -0.001503 1.068848
0.081166 -0.009179 1.082031
0.081166 -0.009179 1.077637
0.081990 -0.001503 1.082520
0.081305 -0.000653 1.077637
0.078385 0.014103 1.074219
0.077662 0.016044 1.083496
0.078144 0.014750 1.078613
0.081305 -0.000653 1.091309
0.081407 -0.009826 1.090820
0.081166 -0.009179 1.086426
0.081990 -0.001503 1.086914
0.081648 -0.010473 1.095215
0.081064 -0.000006 1.095703
0.078144 0.014750 1.087891
0.078829 0.013900 1.096680
0.078385 0.014103 1.092285
0.078245 0.024367 1.074707
0.078486 0.023720 1.070313
0.078042 0.023923 1.083496
0.078727 0.023073 1.079102
0.077801 0.024570 1.097168
0.079656 -0.016006 1.135742
0.080342 -0.016856 1.104004
0.079074 -0.024329 1.104004
0.079315 -0.024976 1.108398
0.080583 -0.017503 1.112793
0.080583 -0.017503 1.108398
0.080583 -0.017503 1.117676
0.080824 -0.018150 1.122070
0.079315 -0.024976 1.126465
0.080342 -0.016856 1.130859
0.080139 -0.017300 1.126465
0.080342 -0.016856 1.144531
0.080139 -0.017300 1.140137
0.079656 -0.016006 1.153809
0.079898 -0.016653 1.148926
0.080139 -0.017300 1.158203
0.079997 0.011756 1.101074
0.080822 0.000641 1.104980
0.082092 -0.010676 1.104492
0.081407 -0.009826 1.100098
0.081749 -0.000856 1.100098
0.081648 -0.010473 1.113281
0.081407 -0.009826 1.108887
0.081305 -0.000653 1.113770
0.081508 -0.000209 1.109375
0.080238 0.011109 1.105469
0.080238 0.011109 1.114258
0.079997 0.011756 1.109863
0.081305 -0.000653 1.122559
0.082092 -0.010676 1.122559
0.081889 -0.011121 1.117676
0.081749 -0.000856 1.118164
0.082092 -0.010676 1.126953
0.081508 -0.000209 1.127441
0.080238 0.011109 1.118652
0.079070 0.013253 1.127930
0.079997 0.011756 1.123535
0.078968 0.022426 1.105957
0.079209 0.021779 1.101563
0.078486 0.023720 1.114746
0.079412 0.022223 1.110352
0.078486 0.023720 1.119141
0.078486 0.023720 1.128418
0.078042 0.023923 1.124023
0.077903 0.015397 1.137207
0.080581 0.001288 1.145508
0.080581 0.001288 1.140625
0.081064 -0.000006 1.136230
0.081648 -0.010473 1.135742
0.081889 -0.011121 1.131348
0.081508 -0.000209 1.131836
0.081648 -0.010473 1.144531
0.081889 -0.011121 1.140137
0.078588 0.014547 1.132324
0.078385 0.014103 1.145996
0.078588 0.014547 1.141602
0.082434 -0.001706 1.154297
0.081648 -0.010473 1.153809
0.081648 -0.010473 1.149414
0.081990 -0.001503 1.149414
0.082092 -0.010676 1.158203
0.081305 -0.000653 1.158691
0.078347 0.015194 1.150391
0.077903 0.015397 1.159180
0.077903 0.015397 1.154785
0.078486 0.023720 1.137207
0.078486 0.023720 1.132813
0.078968 0.022426 1.145996
0.078486 0.023720 1.141602
0.078486 0.023720 1.150879
0.078486 0.023720 1.159668
0.077801 0.024570 1.155273
0.080824 -0.018150 1.198242
0.080824 -0.018150 1.166992
0.081065 -0.018797 1.162598
0.081750 -0.019647 1.175781
0.081750 -0.019647 1.171387
0.081750 -0.019647 1.185059
0.081547 -0.020091 1.180176
0.081065 -0.018797 1.189453
0.080824 -0.018150 1.193848
0.080583 -0.017503 1.207520
0.080824 -0.018150 1.203125
0.080583 -0.017503 1.216309
0.080342 -0.016856 1.211914
0.080824 -0.018150 1.220703
0.077459 0.015600 1.164063
0.082231 -0.002150 1.167480
0.082092 -0.010676 1.166992
0.081889 -0.011121 1.162598
0.081990 -0.001503 1.163086
0.082333 -0.011323 1.176270
0.082092 -0.010676 1.171875
0.081546 -0.001300 1.176758
0.082231 -0.002150 1.171875
0.079312 0.012606 1.167969
0.079312 0.012606 1.177246
0.079312 0.012606 1.172852
0.082231 -0.002150 1.185547
0.082333 -0.011323 1.185059
0.081648 -0.010473 1.180664
0.082231 -0.002150 1.181152
0.082130 -0.011768 1.189453
0.081990 -0.001503 1.189941
0.079514 0.013050 1.181641
0.079514 0.013050 1.190430
0.078385 0.014103 1.186035
0.078968 0.022426 1.168457
0.078727 0.023073 1.164063
0.079209 0.021779 1.177246
0.079653 0.021576 1.172852
0.078968 0.022426 1.182129
0.078245 0.024367 1.190918
0.078042 0.023923 1.186523
0.079997 0.011756 1.199707
0.081990 -0.001503 1.198730
0.082574 -0.011971 1.198730
0.081648 -0.010473 1.194336
0.081990 -0.001503 1.194336
0.082333 -0.011323 1.207520
0.082333 -0.011323 1.203125
0.082231 -0.002150 1.208008
0.081990 -0.001503 1.203613
0.079312 0.012606 1.194824
0.079997 0.011756 1.208496
0.079756 0.012403 1.204102
0.082472 -0.002797 1.216797
0.082574 -0.011971 1.216797
0.082816 -0.012618 1.211914
0.081990 -0.001503 1.212402
0.082130 -0.011768 1.221191
0.082916 -0.003000 1.221191
0.080238 0.011109 1.212891
0.080238 0.011109 1.217285
0.079553 0.011959 1.221680
0.078968 0.022426 1.199707
0.078486 0.023720 1.195313
0.080136 0.020282 1.208496
0.079412 0.022223 1.204102
0.079209 0.021779 1.213379
0.078486 0.023720 1.222168
0.078486 0.023720 1.217773
0.083159 -0.022438 1.261230
0.080583 -0.017503 1.229980
0.080583 -0.017503 1.225586
0.080139 -0.017300 1.234375
0.080824 -0.018150 1.238770
0.084085 -0.023935 1.247559
0.081750 -0.019647 1.243164
0.081509 -0.019000 1.270508
0.081750 -0.019647 1.265625
0.081547 -0.020091 1.279297
0.081991 -0.020294 1.274902
0.082677 -0.021144 1.283691
0.079312 0.012606 1.230957
0.082916 -0.003000 1.230469
0.082333 -0.011323 1.229980
0.082333 -0.011323 1.225586
0.082472 -0.002797 1.226074
0.082574 -0.011971 1.239258
0.082092 -0.010676 1.234375
0.082231 -0.002150 1.239258
0.082231 -0.002150 1.234863
0.079997 0.011756 1.226074
0.080479 0.010462 1.239746
0.081062 0.018785 1.239746
0.079997 0.011756 1.235352
0.084325 -0.005791 1.248047
0.082816 -0.012618 1.243652
0.083501 -0.013468 1.248047
0.084084 -0.005144 1.243652
0.084224 -0.015409 1.252441
0.084325 -0.005791 1.252441
0.082229 0.016641 1.244141
0.080720 0.009815 1.244141
0.083879 0.013203 1.252930
0.083879 0.013203 1.248535
0.084464 0.002735 1.252930
0.084667 0.003179 1.248535
0.078968 0.022426 1.230957
0.078283 0.023276 1.226563
0.079894 0.020929 1.235352
0.083295 0.023670 1.253418
0.083498 0.024114 1.249023
0.081062 0.018785 1.262207
0.084084 -0.005144 1.261719
0.082816 -0.012618 1.261230
0.083742 -0.014115 1.256836
0.085251 -0.007288 1.256836
0.082816 -0.012618 1.270508
0.082574 -0.011971 1.266113
0.084325 -0.005791 1.270508
0.084566 -0.006438 1.266113
0.082229 0.016641 1.257813
0.082332 0.007467 1.261719
0.082814 0.006173 1.257324
0.081646 0.008317 1.270996
0.081405 0.008965 1.266602
0.080821 0.019432 1.270996
0.081062 0.018785 1.266602
0.084084 -0.005144 1.274902
0.082574 -0.011971 1.279297
0.081889 -0.011121 1.274902
0.082816 -0.012618 1.283691
0.084084 -0.005144 1.284180
0.083640 -0.004941 1.279785
0.081646 0.008317 1.275391
0.080479 0.010462 1.284668
0.080961 0.009168 1.279785
0.080580 0.020079 1.275879
0.079450 0.021132 1.284668
0.079450 0.021132 1.280273
0.081547 -0.020091 1.324219
0.082474 -0.021588 1.292480
0.082233 -0.020941 1.288086
0.082677 -0.021144 1.301758
0.082474 -0.021588 1.297363
0.081991 -0.020294 1.310547
0.082677 -0.021144 1.306152
0.081991 -0.020294 1.314941
0.082233 -0.020941 1.319824
0.082918 -0.021791 1.333008
0.081750 -0.019647 1.328613
0.082715 -0.022235 1.337402
0.082715 -0.022235 1.346680
0.083159 -0.022438 1.342285
0.081646 0.008317 1.293457
0.084084 -0.005144 1.292969
0.082816 -0.012618 1.292969
0.082816 -0.012618 1.288574
0.084084 -0.005144 1.288574
0.082574 -0.011971 1.301758
0.083018 -0.012174 1.297363
0.084325 -0.005791 1.301758
0.084325 -0.005791 1.297363
0.081164 0.009612 1.289063
0.081405 0.008965 1.302246
0.081646 0.008317 1.297852
0.084566 -0.006438 1.306152
0.082130 -0.011768 1.306152
0.082574 -0.011971 1.315430
0.082333 -0.011323 1.311035
0.084084 -0.005144 1.315430
0.084566 -0.006438 1.311035
0.081062 0.018785 1.307129
0.081646 0.008317 1.306641
0.081646 0.008317 1.315918
0.082091 0.008114 1.311035
0.081544 0.017491 1.315918
0.081544 0.017491 1.311523
0.079894 0.020929 1.293457
0.079412 0.022223 1.289063
0.080136 0.020282 1.302734
0.080339 0.020726 1.297852
0.081988 0.017288 1.324707
0.084325 -0.005791 1.324219
0.082816 -0.012618 1.324219
0.082816 -0.012618 1.319824
0.084566 -0.006438 1.319824
0.082816 -0.012618 1.333008
0.082574 -0.011971 1.328613
0.083881 -0.005588 1.333496
0.084325 -0.005791 1.328613
0.081785 0.016844 1.320313
0.081405 0.008965 1.324707
0.081405 0.008965 1.320313
0.081405 0.008965 1.333496
0.082332 0.007467 1.329102
0.081303 0.018138 1.333984
0.081747 0.017935 1.329102
0.084325 -0.005791 1.337891
0.083501 -0.013468 1.337891
0.082816 -0.012618 1.346680
0.082816 -0.012618 1.342285
0.085010 -0.006641 1.346680
0.084566 -0.006438 1.342285
0.081164 0.009612 1.337891
0.081405 0.008965 1.347168
0.081164 0.009612 1.342773
0.081062 0.018785 1.347168
0.079653 0.021576 1.338379
0.079209 0.021779 1.342773
0.083400 -0.023085 1.387207
0.083159 -0.022438 1.355469
0.083159 -0.022438 1.351074
0.082233 -0.020941 1.364746
0.083159 -0.022438 1.359863
0.081991 -0.020294 1.369141
0.082677 -0.021144 1.377930
0.081991 -0.020294 1.373535
0.082918 -0.021791 1.382324
0.082474 -0.021588 1.395996
0.083159 -0.022438 1.391602
0.083400 -0.023085 1.400391
0.082474 -0.021588 1.409668
0.083159 -0.022438 1.404785
0.081988 0.017288 1.355957
0.084566 -0.006438 1.355957
0.082574 -0.011971 1.355469
0.083260 -0.012821 1.351074
0.084566 -0.006438 1.351074
0.082816 -0.012618 1.364746
0.083260 -0.012821 1.360352
0.084325 -0.005791 1.364746
0.084566 -0.006438 1.360352
0.081303 0.018138 1.351563
0.081164 0.009612 1.355957
0.081646 0.008317 1.351563
0.081646 0.008317 1.364746
0.081646 0.008317 1.360352
0.081506 0.018582 1.365234
0.081303 0.018138 1.360352
0.083881 -0.005588 1.369141
0.082816 -0.012618 1.369141
0.082816 -0.012618 1.377930
0.083057 -0.013265 1.373535
0.084084 -0.005144 1.377930
0.083640 -0.004941 1.373535
0.081062 0.018785 1.369629
0.081646 0.008317 1.369629
0.081405 0.008965 1.378418
0.081164 0.009612 1.374023
0.080821 0.019432 1.374023
0.079894 0.020929 1.378418
0.081164 0.009612 1.387207
0.083881 -0.005588 1.387207
0.082816 -0.012618 1.387207
0.082816 -0.012618 1.382813
0.084325 -0.005791 1.382813
0.082816 -0.012618 1.391602
0.083501 -0.013468 1.395996
0.084084 -0.005144 1.395996
0.084566 -0.006438 1.391602
0.080720 0.009815 1.382813
0.080923 0.010259 1.396484
0.080720 0.009815 1.391602
0.084084 -0.005144 1.400391
0.082574 -0.011971 1.400391
0.082816 -0.012618 1.404785
0.083260 -0.012821 1.409668
0.083640 -0.004941 1.409668
0.084084 -0.005144 1.405273
0.080479 0.010462 1.400879
0.080479 0.010462 1.409668
0.080923 0.010259 1.405273
0.079412 0.022223 1.387207
0.079653 0.021576 1.382813
0.079653 0.021576 1.396484
0.079412 0.022223 1.392090
0.079412 0.022223 1.400879
0.079412 0.022223 1.409668
0.078727 0.023073 1.405273
0.083159 -0.022438 1.449707
0.081991 -0.020294 1.418457
0.081991 -0.020294 1.414063
0.081991 -0.020294 1.427246
0.081750 -0.019647 1.422852
0.082677 -0.021144 1.431641
0.083159 -0.022438 1.440918
0.082474 -0.021588 1.436523
0.082918 -0.021791 1.445313
0.084706 -0.016703 1.458984
0.083400 -0.023085 1.454102
0.085392 -0.017553 1.463379
0.082474 -0.021588 1.472168
0.084085 -0.023935 1.467773
0.080238 0.011109 1.418457
0.083843 -0.004497 1.418457
0.082130 -0.011768 1.418457
0.082816 -0.012618 1.414063
0.084325 -0.005791 1.414063
0.082574 -0.011971 1.427246
0.082574 -0.011971 1.422852
0.084084 -0.005144 1.427734
0.083843 -0.004497 1.422852
0.080923 0.010259 1.414063
0.080720 0.009815 1.427734
0.080923 0.010259 1.422852
0.083843 -0.004497 1.432129
0.082574 -0.011971 1.432129
0.082816 -0.012618 1.440918
0.082816 -0.012618 1.436523
0.084566 -0.006438 1.440918
0.084325 -0.005791 1.436523
0.080238 0.011109 1.432129
0.080238 0.011109 1.436523
0.079756 0.012403 1.440918
0.080339 0.020726 1.418945
0.079209 0.021779 1.414063
0.080580 0.020079 1.427734
0.079894 0.020929 1.423340
0.079894 0.020929 1.432129
0.078727 0.023073 1.440918
0.078968 0.022426 1.436523
0.085149 0.001885 1.458984
0.084769 -0.005994 1.449707
0.083260 -0.012821 1.449707
0.083260 -0.012821 1.445313
0.085010 -0.006641 1.445313
0.083501 -0.013468 1.454102
0.084084 -0.005144 1.454590
0.085492 -0.007936 1.458984
0.080821 0.019432 1.449707
0.081164 0.009612 1.449707
0.079997 0.011756 1.445313
0.081888 0.007670 1.454590
0.084082 0.013647 1.458984
0.081303 0.018138 1.454590
0.085733 -0.008583 1.463379
0.082574 -0.011971 1.472168
0.083742 -0.014115 1.467773
0.084325 -0.005791 1.472168
0.085492 -0.007936 1.467773
0.083397 0.014497 1.463379
0.080479 0.010462 1.472168
0.080720 0.009815 1.467773
0.081062 0.018785 1.467773
0.085149 0.001885 1.463379
0.078968 0.022426 1.445313
0.083739 0.023467 1.458984
0.082812 0.024964 1.463379
0.080580 0.020079 1.472168
-4.782709 -0.000743 1.513672
-4.782506 -0.000299 1.481445
-4.782950 -0.000096 1.477051
-4.782912 -0.001187 1.489258
-4.782506 -0.000299 1.485352
-4.782506 -0.000299 1.497559
-4.783521 -0.002519 1.493164
-4.782709 -0.000743 1.505371
-4.782912 -0.001187 1.501465
-4.782709 -0.000743 1.509766
-4.783115 -0.001631 1.521484
-4.783115 -0.001631 1.517578
-4.782506 -0.000299 1.525879
-4.782709 -0.000743 1.533691
-4.783318 -0.002075 1.529785
-4.781071 -0.010081 1.513672
-4.781236 -0.011617 1.481445
-4.781769 -0.015131 1.477051
-4.778584 -0.018734 1.489258
-4.778952 -0.020714 1.485352
-4.780830 -0.010728 1.489258
-4.781033 -0.011172 1.485352
-4.781033 -0.011172 1.497559
-4.779193 -0.020067 1.497559
-4.778787 -0.019178 1.493652
-4.780830 -0.010728 1.493652
-4.779358 -0.021602 1.505371
-4.779358 -0.021602 1.501465
-4.780830 -0.010728 1.505371
-4.780627 -0.010284 1.501465
-4.780869 -0.009637 1.509766
-4.778952 -0.020714 1.513672
-4.779155 -0.021158 1.509766
-4.778952 -0.020714 1.517578
-4.780830 -0.010728 1.521484
-4.780627 -0.010284 1.517578
-4.781033 -0.011172 1.525879
-4.779358 -0.021602 1.525879
-4.778952 -0.020714 1.521973
-4.779319 -0.022693 1.529785
-4.780627 -0.010284 1.533691
-4.780830 -0.010728 1.529785
-4.781772 0.022451 1.477051
-4.781770 0.003660 1.574219
-4.782709 -0.000743 1.541992
-4.782912 -0.001187 1.537598
-4.782709 -0.000743 1.549805
-4.782912 -0.001187 1.545898
-4.782176 0.002772 1.558105
-4.782544 0.000792 1.553711
-4.781935 0.002125 1.565918
-4.782544 0.000792 1.562012
-4.782379 0.002327 1.569824
-4.781365 0.004548 1.582031
-4.781973 0.003216 1.578125
-4.782138 0.001680 1.586426
-4.782709 -0.000743 1.590332
-4.781809 0.004751 1.598145
-4.781935 0.002125 1.594238
-4.780463 -0.008749 1.574219
-4.780666 -0.009193 1.541992
-4.780830 -0.010728 1.538086
-4.780131 -0.024469 1.541992
-4.779522 -0.023137 1.550293
-4.779928 -0.024025 1.545898
-4.781071 -0.010081 1.549805
-4.780627 -0.010284 1.545898
-4.780830 -0.010728 1.558105
-4.779319 -0.022693 1.558105
-4.779561 -0.022046 1.554199
-4.780830 -0.010728 1.554199
-4.778749 -0.020270 1.562500
-4.780666 -0.009193 1.562012
-4.778381 -0.018290 1.566406
-4.780463 -0.008749 1.565918
-4.780463 -0.008749 1.578125
-4.780869 -0.009637 1.570313
-4.779193 -0.020067 1.574219
-4.778178 -0.017846 1.570313
-4.778952 -0.020714 1.578613
-4.780666 -0.009193 1.582520
-4.778381 -0.018290 1.582520
-4.778216 -0.016755 1.590332
-4.778622 -0.017643 1.586426
-4.778990 -0.019622 1.598633
-4.778787 -0.019178 1.594727
-4.780666 -0.009193 1.598633
-4.781071 -0.010081 1.594238
-4.780463 -0.008749 1.590332
-4.780463 -0.008749 1.586426
-4.780832 0.008063 1.658691
-4.780997 0.006527 1.606445
-4.781809 0.004751 1.602051
-4.780794 0.006971 1.614258
-4.781403 0.005639 1.610352
-4.781238 0.007174 1.622559
-4.781365 0.004548 1.618652
-4.781238 0.007174 1.626465
-4.781238 0.007174 1.654785
-4.780095 -0.006770 1.638672
-4.780260 -0.008305 1.606445
-4.778749 -0.020270 1.606934
-4.778952 -0.020714 1.602539
-4.778584 -0.018734 1.610840
-4.778419 -0.017199 1.614746
-4.780260 -0.008305 1.602539
-4.780463 -0.008749 1.614746
-4.780260 -0.008305 1.610840
-4.778622 -0.017643 1.623047
-4.778381 -0.018290 1.618652
-4.778990 -0.019622 1.630859
-4.778381 -0.018290 1.626953
-4.780463 -0.008749 1.622559
-4.780501 -0.007658 1.618652
-4.780501 -0.007658 1.630859
-4.780501 -0.007658 1.626953
-4.780057 -0.007861 1.634766
-4.778787 -0.019178 1.635254
-4.778990 -0.019622 1.643066
-4.778952 -0.020714 1.639160
-4.779892 -0.006326 1.643066
-4.778584 -0.018734 1.651367
-4.779193 -0.020067 1.647461
-4.778013 -0.016311 1.659180
-4.778178 -0.017846 1.655273
-4.780298 -0.007214 1.650879
-4.780095 -0.006770 1.646973
-4.780298 -0.007214 1.659180
-4.780298 -0.007214 1.655273
-4.780464 0.010042 1.630371
-4.779284 0.013798 1.638184
-4.780261 0.010486 1.634277
-4.780058 0.010930 1.646484
-4.779690 0.012909 1.642578
-4.780629 0.008507 1.650391
-4.781035 0.007618 1.662598
-4.781973 0.003216 1.674805
-4.782341 0.001236 1.683105
-4.782544 0.000792 1.679199
-4.780832 0.008063 1.687012
-4.780260 -0.008305 1.699707
-4.780260 -0.008305 1.666992
-4.778622 -0.017643 1.667480
-4.777810 -0.015867 1.663574
-4.779561 -0.022046 1.671875
-4.781236 -0.011617 1.675293
-4.780260 -0.008305 1.663086
-4.780463 -0.008749 1.671387
-4.781807 -0.014040 1.683594
-4.782378 -0.016463 1.679688
-4.779561 -0.022046 1.691895
-4.780869 -0.009637 1.687500
-4.780260 -0.008305 1.691406
-4.780057 -0.007861 1.695313
-4.779155 -0.021158 1.700195
-4.779155 -0.021158 1.695801
-4.778584 -0.018734 1.708008
-4.778749 -0.020270 1.704102
-4.780057 -0.007861 1.707520
-4.780095 -0.006770 1.703613
-4.778419 -0.017199 1.715820
-4.778622 -0.017643 1.711914
-4.778419 -0.017199 1.724121
-4.778178 -0.017846 1.720215
-4.780298 -0.007214 1.715820
-4.780095 -0.006770 1.711426
-4.780298 -0.007214 1.723633
-4.779892 -0.006326 1.719727
-4.780629 0.008507 1.666504
-4.780629 0.008507 1.670898
-4.781163 0.023783 1.674316
-4.782305 0.018936 1.682617
-4.782711 0.018048 1.678711
-4.779120 0.015333 1.690430
-4.777407 0.022603 1.698242
-4.777775 0.020624 1.694336
-4.779323 0.014889 1.707031
-4.778587 0.018848 1.702637
-4.779690 0.012909 1.714844
-4.779526 0.014445 1.710938
-4.779323 0.014889 1.723145
-4.779487 0.013354 1.719238
-4.780095 -0.006770 1.760254
-4.780298 -0.007214 1.731934
-4.778381 -0.018290 1.732422
-4.778013 -0.016311 1.728027
-4.778990 -0.019622 1.740234
-4.778787 -0.019178 1.736328
-4.780095 -0.006770 1.728027
-4.780298 -0.007214 1.739746
-4.780095 -0.006770 1.735840
-4.778749 -0.020270 1.744629
-4.778990 -0.019622 1.752441
-4.778990 -0.019622 1.748535
-4.780095 -0.006770 1.748047
-4.780298 -0.007214 1.744141
-4.779892 -0.006326 1.755859
-4.780298 -0.007214 1.751953
-4.779892 -0.006326 1.768066
-4.778381 -0.018290 1.760742
-4.778584 -0.018734 1.756836
-4.777607 -0.015423 1.768555
-4.777848 -0.014776 1.764648
-4.780095 -0.006770 1.764160
-4.777607 -0.015423 1.776855
-4.777848 -0.014776 1.772461
-4.778584 -0.018734 1.785156
-4.778381 -0.018290 1.780762
-4.780095 -0.006770 1.776367
-4.779689 -0.005881 1.772461
-4.779486 -0.005437 1.784180
-4.779689 -0.005881 1.780273
-4.779284 0.013798 1.730957
-4.779487 0.013354 1.727051
-4.779120 0.015333 1.739258
-4.779526 0.014445 1.734863
-4.778549 0.017756 1.743164
-4.778917 0.015777 1.747070
-4.778752 0.017312 1.754883
-4.778714 0.016221 1.750977
-4.780058 0.010930 1.763672
-4.779690 0.012909 1.759277
-4.780667 0.009598 1.771484
-4.780096 0.012021 1.767578
-4.780058 0.010930 1.775391
-4.779893 0.012465 1.783691
-4.779855 0.011374 1.779785
-4.780832 0.008063 1.795898
-4.780832 0.008063 1.808105
-4.780095 -0.006770 1.825195
-4.779689 -0.005881 1.792480
-4.778419 -0.017199 1.792969
-4.778381 -0.018290 1.789063
-4.778381 -0.018290 1.801270
-4.778622 -0.017643 1.797363
-4.779689 -0.005881 1.788574
-4.780095 -0.006770 1.800781
-4.779689 -0.005881 1.796387
-4.778013 -0.016311 1.809082
-4.778216 -0.016755 1.805176
-4.777442 -0.013887 1.817383
-4.777848 -0.014776 1.812988
-4.779892 -0.006326 1.808594
-4.779689 -0.005881 1.804688
-4.780095 -0.006770 1.816895
-4.779486 -0.005437 1.812988
-4.780095 -0.006770 1.820801
-4.777645 -0.014331 1.825195
-4.777810 -0.015867 1.821289
-4.775767 -0.024317 1.833984
-4.777645 -0.014331 1.833496
-4.777481 -0.012796 1.829102
-4.779486 -0.005437 1.833008
-4.779892 -0.006326 1.829102
-4.778051 -0.015220 1.841797
-4.775564 -0.023873 1.837891
-4.777442 -0.013887 1.837402
-4.777607 -0.015423 1.849609
-4.777848 -0.014776 1.845703
-4.779892 -0.006326 1.841309
-4.779930 -0.005234 1.836914
-4.779930 -0.005234 1.849121
-4.779727 -0.004790 1.845215
-4.780058 0.010930 1.791504
-4.780058 0.010930 1.787598
-4.780464 0.010042 1.799805
-4.780667 0.009598 1.803711
-4.780223 0.009395 1.815918
-4.780426 0.008951 1.812012
-4.780464 0.010042 1.824219
-4.780223 0.009395 1.820313
-4.780667 0.009598 1.832031
-4.779855 0.011374 1.828125
-4.780667 0.009598 1.840332
-4.780426 0.008951 1.836426
-4.779690 0.012909 1.848145
-4.779855 0.011374 1.844238
-4.782176 0.002772 1.889160
-4.782912 -0.001187 1.893555
-4.781403 0.005639 1.901367
-4.782176 0.002772 1.897461
-4.781567 0.004104 1.909180
-4.781403 0.005639 1.905273
-4.779689 -0.005881 1.885742
-4.779727 -0.004790 1.857422
-4.777239 -0.013443 1.853516
-4.777278 -0.012352 1.861816
-4.777239 -0.013443 1.857910
-4.779727 -0.004790 1.853027
-4.779689 -0.005881 1.865234
-4.779321 -0.003902 1.861328
-4.776669 -0.011020 1.869629
-4.775602 -0.022781 1.870605
-4.775564 -0.023873 1.866211
-4.776872 -0.011464 1.865723
-4.775767 -0.024317 1.874512
-4.777075 -0.011908 1.877930
-4.776872 -0.011464 1.874023
-4.779727 -0.004790 1.869629
-4.779930 -0.005234 1.877441
-4.779727 -0.004790 1.873535
-4.779118 -0.003458 1.881348
-4.777645 -0.014331 1.882324
-4.779928 -0.024025 1.886719
-4.781972 -0.015575 1.894531
-4.781604 -0.013596 1.890137
-4.781033 -0.011172 1.898438
-4.779725 -0.023581 1.903320
-4.779725 -0.023581 1.911133
-4.779522 -0.023137 1.907227
-4.780298 -0.007214 1.901855
-4.780260 -0.008305 1.910156
-4.780260 -0.008305 1.906250
-4.779323 0.014889 1.855957
-4.779487 0.013354 1.852051
-4.779855 0.011374 1.864258
-4.779487 0.013354 1.860352
-4.780261 0.010486 1.872559
-4.779893 0.012465 1.868652
-4.779487 0.013354 1.880371
-4.779893 0.012465 1.876465
-4.781734 0.021359 1.888184
-4.780464 0.010042 1.884766
-4.782343 0.020027 1.896484
-4.782711 0.018048 1.892090
-4.780960 0.024227 1.899902
-4.781935 0.002125 1.950195
-4.782138 0.001680 1.917480
-4.782176 0.002772 1.913574
-4.781935 0.002125 1.925781
-4.782138 0.001680 1.921875
-4.781403 0.005639 1.933594
-4.781606 0.005195 1.929688
-4.781365 0.004548 1.941895
-4.781567 0.004104 1.937988
-4.781567 0.004104 1.945801
-4.781567 0.004104 1.958008
-4.782544 0.000792 1.954102
-4.781973 0.003216 1.966309
-4.781770 0.003660 1.961914
-4.781770 0.003660 1.974121
-4.781770 0.003660 1.970215
-4.780260 -0.008305 1.950684
-4.780260 -0.008305 1.914063
-4.780666 -0.009193 1.918457
-4.779155 -0.021158 1.918945
-4.779561 -0.022046 1.915039
-4.778584 -0.018734 1.927246
-4.778952 -0.020714 1.923340
-4.780260 -0.008305 1.926270
-4.780260 -0.008305 1.922363
-4.778787 -0.019178 1.935059
-4.778584 -0.018734 1.931152
-4.778749 -0.020270 1.943359
-4.778584 -0.018734 1.939453
-4.780869 -0.009637 1.938965
-4.780260 -0.008305 1.934570
-4.780463 -0.008749 1.930664
-4.780260 -0.008305 1.942871
-4.780057 -0.007861 1.946777
-4.778990 -0.019622 1.947754
-4.779687 -0.024672 1.956055
-4.779561 -0.022046 1.951660
-4.780666 -0.009193 1.955078
-4.780260 -0.008305 1.958984
-4.779319 -0.022693 1.972168
-4.780131 -0.024469 1.968262
-4.780869 -0.009637 1.967285
-4.780260 -0.008305 1.962891
-4.780463 -0.008749 1.971191
-4.781973 0.003216 2.010742
-4.781035 0.007618 1.981934
-4.781606 0.005195 1.978027
-4.781403 0.005639 1.990234
-4.781200 0.006083 1.986328
-4.781606 0.005195 1.994629
-4.782138 0.001680 2.015137
-4.782709 -0.000743 2.019531
-4.782138 0.001680 2.027344
-4.782138 0.001680 2.023438
-4.781770 0.003660 2.035156
-4.782138 0.001680 2.031250
-4.780463 -0.008749 2.011719
-4.780463 -0.008749 1.979492
-4.779358 -0.021602 1.980469
-4.779522 -0.023137 1.976074
-4.779319 -0.022693 1.988281
-4.778381 -0.018290 1.983887
-4.780057 -0.007861 1.975098
-4.780057 -0.007861 1.987305
-4.780260 -0.008305 1.983398
-4.779928 -0.024025 1.992676
-4.779928 -0.024025 2.004883
-4.780057 -0.007861 1.995605
-4.780463 -0.008749 1.991699
-4.780057 -0.007861 2.003418
-4.780260 -0.008305 1.999512
-4.780260 -0.008305 2.020020
-4.780666 -0.009193 2.007813
-4.779725 -0.023581 2.013184
-4.779725 -0.023581 2.008789
-4.779358 -0.021602 2.020996
-4.779358 -0.021602 2.017090
-4.780260 -0.008305 2.015625
-4.780869 -0.009637 2.028320
-4.778749 -0.020270 2.028809
-4.778749 -0.020270 2.024902
-4.780869 -0.009637 2.023926
-4.778749 -0.020270 2.037109
-4.778787 -0.019178 2.033203
-4.780666 -0.009193 2.036133
-4.780666 -0.009193 2.032227
-4.780426 0.008951 1.998047
-4.780426 0.008951 2.002441
-4.780426 0.008951 2.006348
-4.780832 0.008063 2.071289
-4.781973 0.003216 2.043457
-4.782176 0.002772 2.039551
-4.781770 0.003660 2.051758
-4.782176 0.002772 2.047363
-4.781200 0.006083 2.059570
-4.781365 0.004548 2.055664
-4.781606 0.005195 2.067383
-4.781200 0.006083 2.063477
-4.781606 0.005195 2.091797
-4.782176 0.002772 2.096191
-4.780463 -0.008749 2.072754
-4.780463 -0.008749 2.052734
-4.780666 -0.009193 2.044434
-4.778749 -0.020270 2.041504
-4.780666 -0.009193 2.040527
-4.779155 -0.021158 2.049316
-4.778990 -0.019622 2.045410
-4.780463 -0.008749 2.048340
-4.780666 -0.009193 2.060547
-4.779928 -0.024025 2.058105
-4.778952 -0.020714 2.053711
-4.780869 -0.009637 2.056641
-4.779725 -0.023581 2.065918
-4.779725 -0.023581 2.062012
-4.780869 -0.009637 2.064941
-4.780463 -0.008749 2.081055
-4.780869 -0.009637 2.068848
-4.779522 -0.023137 2.074219
-4.779561 -0.022046 2.069824
-4.778787 -0.019178 2.082031
-4.778952 -0.020714 2.078125
-4.780463 -0.008749 2.077148
-4.780869 -0.009637 2.089355
-4.779522 -0.023137 2.090332
-4.780666 -0.009193 2.085449
-4.778381 -0.018290 2.085938
-4.781807 -0.014040 2.098145
-4.781033 -0.011172 2.093750
-4.780464 0.010042 2.075195
-4.780058 0.010930 2.083496
-4.780058 0.010930 2.079102
-4.780629 0.008507 2.087402
-4.782305 0.018936 2.098633
-4.782912 -0.001187 2.137695
-4.783686 -0.004055 2.104980
-4.783280 -0.003166 2.101074
-4.782874 -0.002278 2.113281
-4.782874 -0.002278 2.108887
-4.783115 -0.001631 2.121094
-4.782912 -0.001187 2.117188
-4.782912 -0.001187 2.129395
-4.782912 -0.001187 2.125488
-4.782709 -0.000743 2.133301
-4.784385 0.009686 2.140625
-4.782874 -0.002278 2.145508
-4.782912 -0.001187 2.141602
-4.784752 0.007707 2.152832
-4.783115 -0.001631 2.153809
-4.783115 -0.001631 2.149902
-4.783318 -0.002075 2.162109
-4.783115 -0.001631 2.157715
-4.780298 -0.007214 2.138184
-4.782175 -0.016019 2.106445
-4.782949 -0.018887 2.102539
-4.779687 -0.024672 2.115234
-4.780666 -0.009193 2.113770
-4.781604 -0.013596 2.109863
-4.779561 -0.022046 2.123047
-4.779725 -0.023581 2.119141
-4.779561 -0.022046 2.126953
-4.780298 -0.007214 2.121582
-4.780260 -0.008305 2.117676
-4.780298 -0.007214 2.129883
-4.780057 -0.007861 2.125977
-4.780260 -0.008305 2.133789
-4.778787 -0.019178 2.135254
-4.779358 -0.021602 2.131348
-4.778749 -0.020270 2.143555
-4.778584 -0.018734 2.139160
-4.779892 -0.006326 2.145996
-4.780095 -0.006770 2.142090
-4.778584 -0.018734 2.151367
-4.778749 -0.020270 2.147461
-4.779117 -0.022249 2.160156
-4.778952 -0.020714 2.155762
-4.780298 -0.007214 2.154297
-4.780260 -0.008305 2.150391
-4.780260 -0.008305 2.158691
-4.785122 0.024519 2.106445
-4.783852 0.013201 2.103516
-4.783078 0.016068 2.115234
-4.783814 0.012110 2.111816
-4.784220 0.011222 2.107910
-4.782875 0.016513 2.119629
-4.784220 0.011222 2.127930
-4.783814 0.012110 2.124023
-4.784423 0.010777 2.136230
-4.784423 0.010777 2.132324
-4.784423 0.010777 2.144531
-4.784626 0.010333 2.148438
-4.783281 0.015624 2.160156
-4.783611 0.012554 2.156250
-4.782709 -0.000743 2.198730
-4.783115 -0.001631 2.166016
-4.782709 -0.000743 2.174316
-4.783115 -0.001631 2.170410
-4.782709 -0.000743 2.182617
-4.782874 -0.002278 2.178223
-4.782709 -0.000743 2.190430
-4.782709 -0.000743 2.186523
-4.783115 -0.001631 2.194824
-4.783115 -0.001631 2.207031
-4.783115 -0.001631 2.203125
-4.782709 -0.000743 2.214844
-4.782709 -0.000743 2.210938
-4.782912 -0.001187 2.223145
-4.782303 0.000145 2.219238
-4.780057 -0.007861 2.199219
-4.780463 -0.008749 2.166992
-4.779687 -0.024672 2.168457
-4.779687 -0.024672 2.164551
-4.779687 -0.024672 2.176758
-4.779928 -0.024025 2.172363
-4.780627 -0.010284 2.175293
-4.780260 -0.008305 2.162598
-4.780463 -0.008749 2.170898
-4.779522 -0.023137 2.184570
-4.778546 -0.019825 2.192383
-4.779358 -0.021602 2.188477
-4.780057 -0.007861 2.183105
-4.780057 -0.007861 2.178711
-4.780260 -0.008305 2.191406
-4.780463 -0.008749 2.187012
-4.780298 -0.007214 2.195313
-4.779319 -0.022693 2.201172
-4.778787 -0.019178 2.196289
-4.780095 -0.006770 2.207520
-4.779892 -0.006326 2.203125
-4.779928 -0.024025 2.213379
-4.779725 -0.023581 2.221680
-4.779319 -0.022693 2.217285
-4.780298 -0.007214 2.215820
-4.780260 -0.008305 2.211914
-4.780057 -0.007861 2.224121
-4.780095 -0.006770 2.219727
-4.782508 0.018492 2.167969
-4.783446 0.014089 2.164551
-4.782672 0.016957 2.176270
-4.782875 0.016513 2.172363
-4.782672 0.016957 2.180664
-4.783649 0.013645 2.185059
-4.783852 0.013201 2.193359
-4.783814 0.012110 2.188965
-4.783852 0.013201 2.201172
-4.783649 0.013645 2.197266
-4.782875 0.016513 2.208984
-4.783446 0.014089 2.205078
-4.782875 0.016513 2.212891
-4.782914 0.017604 2.217285
-4.782102 0.019380 2.220703
-4.783115 -0.001631 2.260254
-4.782709 -0.000743 2.231445
-4.782709 -0.000743 2.227539
-4.782912 -0.001187 2.239746
-4.783115 -0.001631 2.235840
-4.782912 -0.001187 2.248047
-4.783115 -0.001631 2.243652
-4.782709 -0.000743 2.255859
-4.782506 -0.000299 2.251953
-4.783115 -0.001631 2.268555
-4.782912 -0.001187 2.264160
-4.783318 -0.002075 2.276367
-4.782874 -0.002278 2.272461
-4.783115 -0.001631 2.284668
-4.782874 -0.002278 2.280762
-4.780298 -0.007214 2.260742
-4.779854 -0.007417 2.231934
-4.779155 -0.021158 2.229492
-4.779522 -0.023137 2.225586
-4.778990 -0.019622 2.237305
-4.778749 -0.020270 2.233398
-4.780260 -0.008305 2.228027
-4.779854 -0.007417 2.240234
-4.779854 -0.007417 2.236328
-4.778178 -0.017846 2.245605
-4.778381 -0.018290 2.241699
-4.778584 -0.018734 2.253906
-4.778178 -0.017846 2.249512
-4.780095 -0.006770 2.244141
-4.780095 -0.006770 2.252441
-4.780095 -0.006770 2.248535
-4.780095 -0.006770 2.256836
-4.778952 -0.020714 2.262207
-4.778584 -0.018734 2.257813
-4.779319 -0.022693 2.270996
-4.779155 -0.021158 2.266602
-4.780095 -0.006770 2.269043
-4.780095 -0.006770 2.264648
-4.779155 -0.021158 2.278809
-4.779117 -0.022249 2.274902
-4.778787 -0.019178 2.286621
-4.778952 -0.020714 2.282715
-4.780095 -0.006770 2.277344
-4.780057 -0.007861 2.272949
-4.779892 -0.006326 2.285156
-4.780095 -0.006770 2.281250
-4.782875 0.016513 2.225586
-4.784017 0.011666 2.229980
-4.783446 0.014089 2.237793
-4.783649 0.013645 2.233887
-4.783446 0.014089 2.246094
-4.783243 0.014533 2.241699
-4.782875 0.016513 2.250000
-4.782305 0.018936 2.253418
-4.781772 0.022451 2.261230
-4.781937 0.020915 2.257324
-4.781772 0.022451 2.269531
-4.781366 0.023339 2.265137
-4.781201 0.024874 2.273438
-4.783115 -0.001631 2.292969
-4.782912 -0.001187 2.288574
-4.782709 -0.000743 2.300781
-4.782709 -0.000743 2.296875
-4.784752 0.007707 2.308105
-4.783483 -0.003611 2.305664
-4.786465 0.000437 2.313477
-4.782506 -0.000299 2.312988
-4.762142 -0.001553 2.325195
-4.780095 -0.006770 2.293457
-4.778013 -0.016311 2.294434
-4.778178 -0.017846 2.290527
-4.779155 -0.021158 2.299316
-4.780095 -0.006770 2.289551
-4.780260 -0.008305 2.301758
-4.780057 -0.007861 2.297852
-4.784954 -0.011528 2.310547
-4.781566 -0.014687 2.306641
-4.775399 -0.022337 2.315918
-4.777036 -0.012999 2.314453
-4.773244 0.003521 2.316406
-4.780298 -0.007214 2.313965
-4.771810 -0.006261 2.317871
-4.767039 -0.005221 2.317383
-4.763080 -0.005956 2.317383
-4.761608 -0.016830 2.323242
-4.761569 -0.017921 2.318848
-4.762343 -0.020788 2.331543
-4.761569 -0.017921 2.327148
-4.763080 -0.005956 2.333984
-4.762548 -0.002442 2.329590
-4.777810 -0.015867 2.348145
-4.766670 -0.022032 2.340332
-4.762914 -0.023212 2.336426
-4.781772 0.022451 2.297852
-4.782672 0.016957 2.302734
-4.781366 0.023339 2.314453
-4.787240 0.016360 2.311523
-4.778346 0.018200 2.314941
-4.779120 0.015333 2.348145
-4.775732 0.012174 2.315430
-4.762346 0.016793 2.322754
-4.763082 0.012835 2.331543
-4.762879 0.013279 2.327148
-4.761571 0.000870 2.320801
-4.762143 0.017238 2.318848
-4.767244 0.013126 2.339844
-4.764223 0.007988 2.336426
-4.795156 -0.000960 2.387695
-4.795156 -0.000960 2.363281
-4.789116 -0.011237 2.355957
-4.794990 -0.018215 2.365234
-4.793848 -0.013369 2.360352
-4.794622 -0.016236 2.369141
-4.794787 -0.017771 2.377441
-4.794990 -0.018215 2.373535
-4.795562 -0.001848 2.371582
-4.795562 -0.001848 2.367188
-4.795562 -0.001848 2.379395
-4.795359 -0.001404 2.375488
-4.795562 -0.001848 2.383789
-4.794787 -0.017771 2.385742
-4.794787 -0.017771 2.381836
-4.794787 -0.017771 2.394043
-4.794990 -0.018215 2.390137
-4.795156 -0.000960 2.395996
-4.795156 -0.000960 2.392090
-4.795192 -0.018660 2.402344
-4.795192 -0.018660 2.398438
-4.794990 -0.018215 2.410645
-4.794990 -0.018215 2.406738
-4.795765 -0.002292 2.408691
-4.795487 0.014761 2.406250
-4.795156 -0.000960 2.404297
-4.794953 -0.000516 2.399902
-4.795119 0.016740 2.364746
-4.794384 0.020699 2.359863
-4.795322 0.016296 2.373047
-4.795525 0.015852 2.369141
-4.795322 0.016296 2.376953
-4.795525 0.015852 2.385254
-4.795322 0.016296 2.381348
-4.795728 0.015408 2.393555
-4.795728 0.015408 2.389648
-4.795525 0.015852 2.401855
-4.795728 0.015408 2.397949
-4.795119 0.016740 2.410156
-4.795359 -0.001404 2.445313
-4.795562 -0.001848 2.416504
-4.794787 -0.017771 2.418945
-4.795192 -0.018660 2.415039
-4.794990 -0.018215 2.427246
-4.794990 -0.018215 2.423340
-4.795487 0.014761 2.414551
-4.795487 0.014761 2.426758
-4.795156 -0.000960 2.412598
-4.795562 -0.001848 2.424805
-4.795359 -0.001404 2.420898
-4.795321 -0.002495 2.433105
-4.794990 -0.018215 2.435547
-4.794990 -0.018215 2.431641
-4.795395 -0.019104 2.439941
-4.795931 0.014964 2.443359
-4.795562 -0.001848 2.429199
-4.795562 -0.001848 2.441406
-4.795156 -0.000960 2.437500
-4.795154 -0.019751 2.473145
-4.795562 -0.001848 2.453613
-4.795765 -0.002292 2.449707
-4.795395 -0.019104 2.448242
-4.794787 -0.017771 2.443848
-4.794990 -0.018215 2.456055
-4.794990 -0.018215 2.452148
-4.795321 -0.002495 2.458008
-4.795931 0.014964 2.451172
-4.795395 -0.019104 2.464844
-4.794990 -0.018215 2.460449
-4.795395 -0.019104 2.468750
-4.795321 -0.002495 2.474609
-4.795765 -0.002292 2.470703
-4.795487 0.014761 2.463867
-4.795487 0.014761 2.459473
-4.795487 0.014761 2.472168
-4.795359 -0.001404 2.466309
-4.795562 -0.001848 2.461914
-4.795728 0.015408 2.418457
-4.795525 0.015852 2.422363
-4.795728 0.015408 2.435059
-4.795525 0.015852 2.430664
-4.795728 0.015408 2.438965
-4.795728 0.015408 2.447266
-4.795728 0.015408 2.455566
-4.795728 0.015408 2.467773
-4.796299 0.012984 2.513672
-4.795763 -0.021083 2.489746
-4.795154 -0.019751 2.485352
-4.795357 -0.020195 2.498047
-4.795598 -0.019548 2.493652
-4.795725 -0.022174 2.502441
-4.795931 0.014964 2.476074
-4.795524 -0.002939 2.479004
-4.795192 -0.018660 2.481445
-4.795395 -0.019104 2.477051
-4.795321 -0.002495 2.486816
-4.795930 -0.003827 2.482910
-4.795893 0.013872 2.488770
-4.796299 0.012984 2.484863
-4.795930 -0.003827 2.495605
-4.795524 -0.002939 2.491211
-4.795524 -0.002939 2.503906
-4.796133 -0.004271 2.500000
-4.795893 0.013872 2.497070
-4.796299 0.012984 2.493164
-4.796299 0.012984 2.505371
-4.796502 0.012540 2.501465
-4.795966 -0.021527 2.510742
-4.795763 -0.021083 2.506348
-4.795966 -0.021527 2.519043
-4.795763 -0.021083 2.514648
-4.795966 -0.021527 2.527344
-4.795966 -0.021527 2.523438
-4.795725 -0.022174 2.535645
-4.795763 -0.021083 2.531250
-4.796299 0.012984 2.509766
-4.796133 -0.004271 2.512207
-4.795930 -0.003827 2.507813
-4.795891 -0.004918 2.520508
-4.796094 -0.005363 2.516602
-4.796058 0.012337 2.518066
-4.796500 -0.006251 2.529297
-4.796297 -0.005807 2.524902
-4.795891 -0.004918 2.537109
-4.796500 -0.006251 2.533203
-4.796261 0.011893 2.526367
-4.796299 0.012984 2.521973
-4.796261 0.011893 2.534668
-4.796261 0.011893 2.530273
-4.795525 0.015852 2.479980
-4.797238 0.008581 2.572266
-4.796131 -0.023062 2.544434
-4.796334 -0.023506 2.540039
-4.796537 -0.023951 2.552734
-4.795928 -0.022618 2.548340
-4.796537 -0.023951 2.557129
-4.796537 -0.023951 2.561035
-4.796870 0.010561 2.542969
-4.796297 -0.005807 2.541504
-4.796703 -0.006695 2.549805
-4.796500 -0.006251 2.545898
-4.796464 0.011449 2.538574
-4.796870 0.010561 2.551270
-4.796464 0.011449 2.546875
-4.796462 -0.007342 2.558105
-4.796703 -0.006695 2.554199
-4.796868 -0.008230 2.566895
-4.796665 -0.007786 2.562500
-4.796629 0.009914 2.559570
-4.796832 0.009470 2.555664
-4.796996 0.007934 2.568359
-4.797238 0.008581 2.563965
-4.796296 -0.024598 2.569336
-4.797199 0.007490 2.581055
-4.796868 -0.008230 2.575195
-4.796665 -0.007786 2.570801
-4.797033 -0.009765 2.583496
-4.796830 -0.009321 2.579590
-4.797402 0.007046 2.576660
-4.797236 -0.010209 2.587891
-4.797642 -0.011098 2.596680
-4.797439 -0.010654 2.592285
-4.797605 0.006602 2.589355
-4.797605 0.006602 2.584961
-4.798011 0.005714 2.597656
-4.797402 0.007046 2.593262
-4.797569 0.024302 2.582031
-4.797366 0.024746 2.578125
-4.797975 0.023414 2.590820
-4.797975 0.023414 2.586426
-4.797734 0.022767 2.599121
-4.797772 0.023858 2.594727
-4.798341 0.002643 2.635742
-4.797770 0.005067 2.605957
-4.797604 -0.012189 2.604980
-4.797401 -0.011745 2.600586
-4.798010 -0.013077 2.613281
-4.797807 -0.012633 2.609375
-4.797770 0.005067 2.602051
-4.797973 0.004623 2.614746
-4.797770 0.005067 2.610352
-4.798010 -0.013077 2.621582
-4.798213 -0.013521 2.617676
-4.798174 -0.014612 2.630371
-4.798010 -0.013077 2.625977
-4.798582 0.003290 2.623047
-4.798176 0.004179 2.618652
-4.798341 0.002643 2.627441
-4.798544 0.002199 2.631836
-4.798377 -0.015056 2.634766
-4.798783 -0.015945 2.643066
-4.798580 -0.015500 2.639160
-4.798950 0.001311 2.644531
-4.798544 0.002199 2.640137
-4.798783 -0.015945 2.651367
-4.798783 -0.015945 2.647461
-4.798745 -0.017036 2.660156
-4.798745 -0.017036 2.655762
-4.799153 0.000867 2.652832
-4.799153 0.000867 2.648438
-4.798912 0.000220 2.661133
-4.799115 -0.000224 2.657227
-4.798139 0.021878 2.607422
-4.798178 0.022969 2.603027
-4.798139 0.021878 2.611816
-4.798342 0.021434 2.620117
-4.798342 0.021434 2.615723
-4.798304 0.020343 2.628418
-4.798342 0.021434 2.624023
-4.798507 0.019899 2.636719
-4.798507 0.019899 2.632813
-4.799116 0.018567 2.645508
-4.798710 0.019455 2.641113
-4.798710 0.019455 2.649414
-4.798875 0.017920 2.653809
-4.799078 0.017476 2.658203
-4.800220 0.012629 2.700684
-4.799354 -0.018368 2.668945
-4.799151 -0.017924 2.664551
-4.799354 -0.018368 2.677246
-4.799354 -0.018368 2.672852
-4.799557 -0.018812 2.685547
-4.799316 -0.019459 2.681641
-4.799316 -0.019459 2.689941
-4.799484 0.016587 2.662598
-4.799279 -0.001759 2.674316
-4.799115 -0.000224 2.669922
-4.798912 0.000220 2.665527
-4.799446 0.015496 2.675293
-4.799484 0.016587 2.670898
-4.799521 -0.001112 2.678223
-4.799685 -0.002648 2.682617
-4.799888 -0.003092 2.691406
-4.799888 -0.003092 2.687012
-4.799649 0.015052 2.683594
-4.799446 0.015496 2.679199
-4.800258 0.013720 2.692383
-4.799649 0.015052 2.687988
-4.799722 -0.020347 2.694336
-4.799684 -0.021439 2.698730
-4.799887 -0.021883 2.707031
-4.799684 -0.021439 2.703125
-4.800496 -0.023215 2.715820
-4.799887 -0.021883 2.711426
-4.800458 -0.024306 2.724609
-4.800293 -0.022771 2.719727
-4.800017 0.013073 2.696777
-4.800294 -0.003980 2.699707
-4.799888 -0.003092 2.695313
-4.800256 -0.005071 2.708008
-4.799850 -0.004183 2.704102
-4.800220 0.012629 2.705078
-4.800459 -0.005515 2.716797
-4.800459 -0.005515 2.712402
-4.800624 -0.007050 2.721191
-4.800828 0.011296 2.713867
-4.800423 0.012185 2.709473
-4.800587 0.010649 2.722168
-4.800625 0.011740 2.717773
-4.799281 0.017031 2.666504
-4.801564 0.007338 2.760254
-4.800255 -0.023862 2.728516
-4.800660 -0.024750 2.732910
-4.800790 0.010205 2.730469
-4.800827 -0.007495 2.729492
-4.800827 -0.007495 2.725586
-4.801030 -0.007939 2.738281
-4.800624 -0.007050 2.733887
-4.800587 0.010649 2.726074
-4.801399 0.008873 2.734863
-4.800993 0.009761 2.739258
-4.800992 -0.009030 2.746582
-4.801233 -0.008383 2.742676
-4.801195 -0.009474 2.755371
-4.800992 -0.009030 2.750977
-4.801158 0.008226 2.747559
-4.800955 0.008670 2.743652
-4.801158 0.008226 2.751953
-4.801767 0.006894 2.756348
-4.801398 -0.009918 2.759766
-4.801562 -0.011453 2.768066
-4.801804 -0.010806 2.764160
-4.801729 0.005802 2.769043
-4.801361 0.007782 2.764648
-4.801601 -0.010362 2.776367
-4.801804 -0.010806 2.772461
-4.801968 -0.012341 2.785156
-4.801968 -0.012341 2.781250
-4.801526 0.006246 2.777344
-4.801767 0.006894 2.772949
-4.802135 0.004914 2.786133
-4.802135 0.004914 2.781738
-4.801730 0.024593 2.761230
-4.802136 0.023705 2.770020
-4.801730 0.024593 2.765625
-4.801895 0.023058 2.778320
-4.801933 0.024149 2.773926
-4.801895 0.023058 2.786621
-4.801895 0.023058 2.782715
-4.802541 0.004026 2.824219
-4.801729 0.005802 2.794434
-4.802374 -0.013230 2.793945
-4.802336 -0.014321 2.790039
-4.802171 -0.012786 2.802246
-4.802133 -0.013877 2.798340
-4.801932 0.005358 2.790039
-4.801729 0.005802 2.798828
-4.802336 -0.014321 2.806641
-4.802742 -0.015209 2.815430
-4.802539 -0.014765 2.811035
-4.802338 0.004470 2.807129
-4.802338 0.004470 2.803223
-4.802300 0.003379 2.815918
-4.802338 0.004470 2.811523
-4.802704 -0.016300 2.845215
-4.802338 0.004470 2.819824
-4.802742 -0.015209 2.823730
-4.802336 -0.014321 2.819336
-4.802945 -0.015653 2.832520
-4.802742 -0.015209 2.828125
-4.802503 0.002935 2.833008
-4.802300 0.003379 2.828613
-4.802501 -0.015856 2.840820
-4.802501 -0.015856 2.836914
-4.802501 -0.015856 2.849609
-4.802503 0.002935 2.841309
-4.802300 0.003379 2.836914
-4.802503 0.002935 2.849609
-4.802300 0.003379 2.845215
-4.802136 0.023705 2.799316
-4.802301 0.022170 2.808105
-4.802301 0.022170 2.803711
-4.802263 0.021079 2.816406
-4.802098 0.022614 2.812012
-4.802504 0.021726 2.824707
-4.802098 0.022614 2.820313
-4.802504 0.021726 2.833008
-4.802504 0.021726 2.829102
-4.802504 0.021726 2.841797
-4.802301 0.022170 2.837402
-4.802669 0.020190 2.846191
-4.802667 0.001400 2.888184
-4.802300 0.003379 2.854004
-4.802539 -0.014765 2.857422
-4.802742 -0.015209 2.853516
-4.802742 -0.015209 2.861816
-4.802909 0.002047 2.862793
-4.802300 0.003379 2.857910
-4.802742 -0.015209 2.870605
-4.802336 -0.014321 2.866211
-4.802501 -0.015856 2.878906
-4.802539 -0.014765 2.874512
-4.802909 0.002047 2.871094
-4.802706 0.002491 2.866699
-4.802503 0.002935 2.879395
-4.802503 0.002935 2.875000
-4.802704 -0.016300 2.895996
-4.802704 -0.016300 2.904785
-4.802706 0.002491 2.883789
-4.802501 -0.015856 2.887695
-4.802742 -0.015209 2.883301
-4.802742 -0.015209 2.891602
-4.802667 0.001400 2.896484
-4.802909 0.002047 2.892090
-4.802870 0.000955 2.905273
-4.802501 -0.015856 2.900391
-4.802501 -0.015856 2.908691
-4.802667 0.001400 2.900879
-4.802667 0.001400 2.909180
-4.803037 0.018211 2.905762
-4.802466 0.020635 2.854492
-4.802263 0.021079 2.850098
-4.802263 0.021079 2.862793
-4.802466 0.020635 2.858398
-4.802466 0.020635 2.871582
-4.802466 0.020635 2.867188
-4.802872 0.019746 2.879883
-4.802872 0.019746 2.875488
-4.803075 0.019302 2.888672
-4.802466 0.020635 2.883789
-4.802872 0.019746 2.892578
-4.802872 0.019746 2.900879
-4.802872 0.019746 2.896973
-4.802834 0.018655 2.909668
-4.803037 0.018211 2.947754
-4.802704 -0.016300 2.913086
-4.802704 -0.016300 2.925781
-4.802704 -0.016300 2.921387
-4.802907 -0.016744 2.934570
-4.802907 -0.016744 2.930176
-4.803110 -0.017188 2.942871
-4.802907 -0.016744 2.938477
-4.802667 0.001400 2.913574
-4.803276 0.000067 2.917969
-4.802870 0.000955 2.921875
-4.802742 -0.015209 2.916992
-4.803037 0.018211 2.926758
-4.802667 0.001400 2.926270
-4.803037 0.018211 2.922363
-4.802870 0.000955 2.934570
-4.803276 0.000067 2.930664
-4.802870 0.000955 2.943359
-4.802870 0.000955 2.938965
-4.803240 0.017767 2.935547
-4.803037 0.018211 2.931152
-4.803443 0.017323 2.939453
-4.803313 -0.017632 2.947266
-4.802704 -0.016300 2.955566
-4.803110 -0.017188 2.951660
-4.802907 -0.016744 2.964355
-4.803110 -0.017188 2.959961
-4.803110 -0.017188 2.973145
-4.803110 -0.017188 2.968750
-4.803037 0.018211 2.943848
-4.803073 0.000511 2.947754
-4.803073 0.000511 2.956055
-4.803073 0.000511 2.951660
-4.803240 0.017767 2.956543
-4.803240 0.017767 2.952148
-4.802870 0.000955 2.964355
-4.802870 0.000955 2.968750
-4.802667 0.001400 2.959961
-4.802667 0.001400 2.973145
-4.802834 0.018655 2.917969
-4.803075 0.019302 2.914063
-4.802834 0.018655 2.964844
-4.802834 0.018655 2.960449
-4.803075 0.019302 2.973145
-4.802834 0.018655 2.969238
-4.803037 0.018211 3.011719
-4.802907 -0.016744 2.981445
-4.802907 -0.016744 2.977051
-4.802907 -0.016744 2.989746
-4.802704 -0.016300 2.998047
-4.802704 -0.016300 2.994141
-4.803110 -0.017188 3.002930
-4.803037 0.018211 2.990234
-4.802870 0.000955 2.981445
-4.803073 0.000511 2.977539
-4.802870 0.000955 2.990234
-4.803276 0.000067 2.985840
-4.802742 -0.015209 2.985352
-4.802667 0.001400 2.994141
-4.802667 0.001400 3.002930
-4.802667 0.001400 2.998535
-4.802907 -0.016744 3.011230
-4.802704 -0.016300 3.006836
-4.802704 -0.016300 3.019531
-4.802704 -0.016300 3.015625
-4.802704 -0.016300 3.028320
-4.802667 0.001400 3.011230
-4.802870 0.000955 3.007324
-4.802870 0.000955 3.020020
-4.802870 0.000955 3.015625
-4.803073 0.000511 3.032715
-4.802945 -0.015653 3.023926
-4.802945 -0.015653 3.036621
-4.802501 -0.015856 3.032227
-4.802667 0.001400 3.028320
-4.802667 0.001400 3.023926
-4.802667 0.001400 3.037109
-4.803037 0.018211 3.037109
-4.803075 0.019302 2.981445
-4.803075 0.019302 2.977539
-4.802834 0.018655 2.985840
-4.803075 0.019302 2.994629
-4.803075 0.019302 3.002930
-4.802834 0.018655 2.998535
-4.802834 0.018655 3.007324
-4.802834 0.018655 3.020020
-4.803075 0.019302 3.015625
-4.802834 0.018655 3.028809
-4.802834 0.018655 3.024414
-4.803075 0.019302 3.032715
-4.802909 0.002047 3.075195
-4.802704 -0.016300 3.053711
-4.802667 0.001400 3.041016
-4.802742 -0.015209 3.041016
