-4.39472 0.001243 0.038086
-4.4026 0.001623 0.037598
-4.39885 0.000444 0.037598
-4.39093 -0.001027 0.037598
-4.37117 -0.003614 0.037598
-4.35477 -0.004133 0.038086
-4.36701 -0.003906 0.037598
-4.34693 -0.003422 0.038574
-4.34256 -0.003269 0.038574
-4.33901 -0.004893 0.038574
-4.2652 0.002713 0.038574
-4.27349 0.002205 0.038086
-4.26949 0.000378 0.038086
-4.24508 0.002106 0.039063
-4.25712 0.002777 0.039063
-4.26145 0.001534 0.038574
-4.25377 0.00071 0.038574
-4.24961 0.000418 0.038574
-4.24157 0.001573 0.039063
-4.23724 0.002817 0.039551
-4.23345 0.000546 0.039063
-4.22973 0.000458 0.039063
-4.22553 -0.000925 0.039063
-4.22161 -0.000569 0.039063
-4.21785 -0.001749 0.039063
-4.21393 -0.001393 0.039063
-4.20997 -0.002129 0.039063
-4.20173 -0.000529 0.040039
-4.20601 -0.002864 0.039063
-4.19777 -0.001265 0.039551
-4.19364 -0.000465 0.040039
-4.18965 -0.002292 0.040039
-4.18609 -0.003916 0.039551
-4.11277 0.004985 0.039551
-4.08893 0.004289 0.040039
-4.07709 0.003173 0.040039
-4.06187 -0.001101 0.039551
-4.07354 0.001549 0.039551
-4.06958 0.000814 0.039551
-4.06603 -0.00081 0.039551
-4.03799 -0.002888 0.039551
-4.05807 -0.003372 0.039063
-4.05432 -0.004552 0.039063
-4.04207 -0.004779 0.039063
-4.03011 -0.003268 0.040039
-4.03407 -0.002533 0.040039
-4.78197 0.003216 0.510254
-4.78311 -0.001631 0.480469
-4.78315 -0.00054 0.476562
-4.78311 -0.001631 0.48877
-4.78275 0.000348 0.484863
-4.78295 -9.6e-05 0.497559
-4.78295 -9.6e-05 0.493164
-4.78234 0.001236 0.505859
-4.78258 0.001883 0.501953
-4.78238 0.002327 0.518555
-4.78258 0.001883 0.51416
-4.78234 0.001236 0.526367
-4.78238 0.002327 0.522461
-4.78275 0.000348 0.534668
-4.78275 0.000348 0.530273
-4.78238 0.002327 0.542969
-4.78254 0.000792 0.538574
-4.78197 0.003216 0.55127
-4.78197 0.003216 0.547363
-4.78181 0.004751 0.560059
-4.78181 0.004751 0.555664
-4.78201 0.004307 0.563965
-4.78177 0.00366 0.629395
-4.77936 -0.002811 0.637207
-4.77973 -0.00479 0.604004
-4.77956 -0.003255 0.64502
-4.77977 -0.003699 0.641113
-4.77932 -0.003902 0.65332
-4.77952 -0.004346 0.648926
-4.77977 -0.003699 0.661621
-4.77956 -0.003255 0.657227
-4.77952 -0.004346 0.698242
-4.77952 -0.004346 0.669434
-4.77952 -0.004346 0.665527
-4.77952 -0.004346 0.677734
-4.77932 -0.003902 0.673828
-4.77952 -0.004346 0.682129
-4.77973 -0.00479 0.694336
-4.77973 -0.00479 0.706543
-4.77973 -0.00479 0.714844
-4.78201 0.004307 0.748047
-4.77952 -0.004346 0.730957
-4.77952 -0.004346 0.739258
-4.77952 -0.004346 0.735352
-4.78214 0.00168 0.833496
-4.78332 -0.002075 0.841309
-4.78275 0.000348 0.837402
-4.78311 -0.001631 0.849609
-4.78332 -0.002075 0.845703
-4.78291 -0.001187 0.88623
-4.78311 -0.001631 0.853516
-4.78332 -0.002075 0.861816
-4.78352 -0.002519 0.85791
-4.78291 -0.001187 0.870117
-4.78271 -0.000743 0.866211
-4.78275 0.000348 0.878418
-4.78291 -0.001187 0.874023
-4.78295 -9.6e-05 0.882324
-4.78295 -9.6e-05 0.894531
-4.78295 -9.6e-05 0.890625
-4.78295 -9.6e-05 0.902832
-4.78291 -0.001187 0.898437
-4.78352 -0.002519 0.910645
-4.78311 -0.001631 0.906738
-4.78177 0.00366 0.947754
-4.78295 -9.6e-05 0.918945
-4.78332 -0.002075 0.914551
-4.78295 -9.6e-05 0.922852
-4.78254 0.000792 0.927246
-4.78234 0.001236 0.935547
-4.78234 0.001236 0.931152
-4.78238 0.002327 0.943359
-4.78218 0.002772 0.939453
-4.78234 0.001236 0.95166
-4.78295 -9.6e-05 0.955566
-4.78295 -9.6e-05 0.963867
-4.78275 0.000348 0.959473
-4.78291 -0.001187 0.97168
-4.78311 -0.001631 0.967773
-4.78234 0.001236 1.01221
-4.78254 0.000792 0.976074
-4.78275 0.000348 0.97998
-4.78291 -0.001187 0.987793
-4.78254 0.000792 0.983887
-4.78275 0.000348 0.996094
-4.78295 -9.6e-05 0.992188
-4.78275 0.000348 1.00439
-4.78254 0.000792 1
-4.78275 0.000348 1.0083
-4.78234 0.001236 1.02051
-4.78254 0.000792 1.0166
-4.78238 0.002327 1.02881
-4.78238 0.002327 1.0249
-4.78275 0.000348 1.03662
-4.78254 0.000792 1.03272
-4.78328 -0.003166 1.07275
-4.78311 -0.001631 1.04492
-4.78295 -9.6e-05 1.04053
-4.78328 -0.003166 1.05273
-4.78348 -0.003611 1.04883
-4.78291 -0.001187 1.05713
-4.78311 -0.001631 1.06494
-4.78332 -0.002075 1.06103
-4.78311 -0.001631 1.06885
-4.78352 -0.002519 1.08106
-4.78291 -0.001187 1.07715
-4.78311 -0.001631 1.08936
-4.78332 -0.002075 1.08545
-4.78332 -0.002075 1.09717
-4.78332 -0.002075 1.09326
-4.78295 -9.6e-05 1.13818
-4.78291 -0.001187 1.10547
-4.78311 -0.001631 1.10156
-4.78311 -0.001631 1.11377
-4.78352 -0.002519 1.10938
-4.78311 -0.001631 1.12158
-4.78352 -0.002519 1.11768
-4.78295 -9.6e-05 1.12988
-4.78291 -0.001187 1.12598
-4.78271 -0.000743 1.13379
-4.78295 -9.6e-05 1.146
-4.78271 -0.000743 1.14209
-4.78197 0.003216 1.1543
-4.78275 0.000348 1.1499
-4.78254 0.000792 1.16211
-4.78234 0.001236 1.1582
-4.78234 0.001236 1.19873
-4.78251 -0.000299 1.1665
-4.78291 -0.001187 1.17432
-4.78271 -0.000743 1.17041
-4.78254 0.000792 1.18262
-4.78254 0.000792 1.17822
-4.78214 0.00168 1.19043
-4.78214 0.00168 1.18652
-4.78234 0.001236 1.19482
-4.78181 0.004751 1.20703
-4.78214 0.00168 1.20264
-4.78181 0.004751 1.21094
-4.77973 -0.00479 1.22266
-4.78291 -0.001187 1.26318
-4.78218 0.002772 1.24707
-4.78234 0.001236 1.25537
-4.78193 0.002125 1.25147
-4.78311 -0.001631 1.25928
-4.78275 0.000348 1.27148
-4.78275 0.000348 1.26758
-4.78218 0.002772 1.2793
-4.78197 0.003216 1.27539
-4.78275 0.000348 1.28369
-4.78238 0.002327 1.2915
-4.78234 0.001236 1.2876
-4.78197 0.003216 1.29981
-4.78193 0.002125 1.2959
-4.78157 0.004104 1.30762
-4.78177 0.00366 1.30371
-4.78177 0.00366 1.31592
-4.78181 0.004751 1.31201
-4.78157 0.004104 1.31982
-4.78177 0.00366 1.33984
-4.78238 0.002327 1.33594
-4.78177 0.00366 1.34424
-4.78234 0.001236 1.38867
-4.78181 0.004751 1.35644
-4.78238 0.002327 1.38037
-4.78254 0.000792 1.38428
-4.78214 0.00168 1.39648
-4.78234 0.001236 1.39258
-4.78197 0.003216 1.40088
-4.78177 0.00366 1.40869
-4.78181 0.004751 1.40478
-4.78157 0.004104 1.4126
-4.78181 0.004751 1.42481
-4.78197 0.003216 1.4209
-4.78177 0.00366 1.44092
-4.78181 0.004751 1.43701
-4.78197 0.003216 1.46533
-4.78137 0.004548 1.46094
-4.78332 -0.002075 1.47314
-4.78251 -0.000299 1.46924
-4.00631 -0.002873 0.040527
-4.01027 -0.002137 0.040527
-4.02635 -0.004448 0.039551
-4.02223 -0.003648 0.040039
-4.01831 -0.003293 0.040039
-4.01435 -0.004028 0.040039
-4.00239 -0.002517 0.040527
-3.93445 -0.00189 0.038086
-3.95392 0.004858 0.039063
-3.94996 0.004123 0.039063
-3.94653 -0.000127 0.038086
-3.9429 -0.003934 0.037598
-3.93874 -0.004225 0.037598
-3.9224 0.003338 0.039551
-3.93028 0.003718 0.039551
-3.92612 0.003427 0.039551
-3.91412 0.003847 0.040039
-3.91824 0.003047 0.039551
-3.91019 0.004202 0.040039
-3.90644 0.003023 0.040039
-3.89427 0.004977 0.040527
-3.89048 0.002707 0.040039
-3.83131 0.00412 0.037109
-3.82756 0.00294 0.037109
-3.86688 0.002658 0.040527
-3.8708 0.002302 0.040527
-3.8788 5.6e-05 0.039551
-3.88672 0.001527 0.040039
-3.88333 -0.001632 0.039063
-3.87492 0.001503 0.040039
-3.86296 0.003013 0.040527
-3.85508 0.002634 0.040527
-3.8588 0.002722 0.040527
-3.85112 0.001898 0.040527
-3.84736 0.000718 0.040527
-3.84316 -0.000664 0.040039
-3.83941 -0.001844 0.040039
-3.79213 -0.004124 0.040039
-3.79997 -0.004835 0.040039
-3.79585 -0.004035 0.040039
-3.77266 -0.004972 0.040527
-3.76461 -0.003817 0.041016
-3.76874 -0.004617 0.040527
-3.76045 -0.004109 0.040527
-3.75649 -0.004844 0.040527
-3.72064 0.00078 0.038086
-3.75257 -0.004489 0.040527
-3.71675 0.002226 0.038574
-3.61415 0.004722 0.040527
-3.49228 2.5e-05 0.036133
-3.50016 0.000405 0.036133
-3.49616 -0.001422 0.035645
-3.48807 0.004542 0.037109
-3.57871 0.003557 0.040527
-3.59076 -0.001671 0.039063
-3.61044 -0.001267 0.039063
-3.60669 -0.002446 0.038574
-3.59884 -0.001735 0.039063
-3.60252 -0.002738 0.038574
-3.59448 -0.001582 0.039063
-3.58251 -7.2e-05 0.039551
-3.5868 -0.002407 0.039063
-3.57499 0.003469 0.040527
-3.56695 0.004624 0.040527
-3.56291 0.001706 0.040039
-3.55487 0.002862 0.040527
-3.55919 0.001618 0.040039
-3.54752 -0.001033 0.039551
-3.55128 0.000147 0.040039
-3.53948 0.000122 0.040039
-3.54319 0.000211 0.040039
-3.53164 0.000834 0.040039
-3.53568 -0.002148 0.039551
-3.52788 -0.000346 0.040039
-3.52392 -0.001082 0.039551
-3.51996 -0.001817 0.039551
-3.51617 -0.004088 0.039063
-3.394 0.001276 0.036621
-3.3784 -0.001019 0.036133
-3.39017 -0.002086 0.035645
-3.38621 -0.002821 0.035645
-3.38229 -0.002466 0.035645
-3.37436 0.001963 0.036621
-3.37023 0.002763 0.037109
-3.27583 0.002568 0.037109
-3.27992 0.000677 0.036621
-3.31493 -0.004262 0.039551
-3.32321 -0.00477 0.039551
-3.31933 -0.003323 0.039551
-3.31141 -0.004794 0.039551
-3.24836 -0.001934 0.040039
-3.24045 -0.003405 0.039551
-3.24437 -0.003761 0.039551
-3.21269 -0.003746 0.039551
-3.23261 -0.002694 0.039551
-3.23629 -0.003697 0.039551
-3.22869 -0.002338 0.039551
-3.22452 -0.00263 0.039551
-3.22101 -0.003163 0.039551
-3.21688 -0.002363 0.039551
-3.20512 -0.001296 0.040039
-3.20901 -0.002743 0.039551
-3.18125 -0.003083 0.039551
-3.201 -0.000496 0.040039
-3.19704 -0.001232 0.040039
-3.1894 -0.000965 0.040039
-3.19308 -0.001968 0.039551
-3.18541 -0.002792 0.039551
-3.17756 -0.00208 0.039551
-3.13427 0.003366 0.040527
-3.15372 -0.002776 0.039063
-3.15761 -0.004223 0.039063
-3.14984 -0.00133 0.039551
-3.14592 -0.000974 0.039551
-3.14224 2.9e-05 0.039551
-3.13795 0.002364 0.040039
-3.11879 0.004345 0.040527
-3.11463 0.004053 0.040527
-3.07527 0.003244 0.040039
-3.08319 0.004716 0.040527
-3.0792 0.002889 0.040039
-3.07132 0.002509 0.039551
-3.0676 0.00242 0.039551
-3.04383 0.003907 0.039551
-3.04744 0.000722 0.039063
-3.0594 -0.000789 0.038574
-3.06336 -5.3e-05 0.039063
-3.05544 -0.001525 0.038574
-3.05149 -0.00226 0.038574
-2.94903 0.0046 0.038574
-2.92931 0.003104 0.038086
-2.93316 0.000566 0.037598
-2.88172 -0.002005 0.040039
-2.88512 -0.004746 0.039551
-2.8778 -0.001649 0.040527
-2.86972 -0.001585 0.040039
-2.87388 -0.001294 0.040527
-2.86576 -0.002321 0.040039
-2.86184 -0.001965 0.040039
-2.85788 -0.002701 0.039551
-2.85392 -0.003436 0.039551
-2.84952 -0.004375 0.039063
-2.80604 -0.004384 0.038574
-2.80996 -0.00474 0.038574
-2.79099 0.002697 0.039551
-2.79859 0.001339 0.039551
-2.80243 -0.001199 0.039063
-2.79463 0.000603 0.039551
-2.72699 -0.002931 0.037109
-2.72283 -0.003222 0.037109
-2.71506 -0.000329 0.037109
-2.71887 -0.003958 0.036621
-2.78679 0.001315 0.039551
-2.78279 -0.000512 0.038574
-2.77867 0.000288 0.039063
-2.77475 0.000643 0.039063
-2.77111 0.002737 0.039063
-2.76702 0.004628 0.039551
-2.75938 0.004895 0.039551
-2.73515 -0.000813 0.037598
-2.7513 0.004959 0.039551
-2.7473 0.003132 0.039063
-2.7431 0.00175 0.038574
-2.73911 -7.7e-05 0.038086
-2.73099 -0.001104 0.037598
-2.71146 0.002856 0.038086
-2.69094 -0.002763 0.040527
-2.68723 -0.002851 0.040039
-2.66742 -0.000629 0.040527
-2.67154 -0.001429 0.040039
-2.67938 -0.00214 0.040039
-2.6831 -0.002052 0.040527
-2.67526 -0.001341 0.040527
-2.66322 -0.002012 0.040039
-2.65934 -0.000565 0.040039
-2.65514 -0.001948 0.039551
-2.6517 -0.000298 0.040039
-2.62825 0.004018 0.032227
-2.64393 0.002595 0.040527
-2.64758 0.000502 0.040039
-2.63942 -0.001617 0.039551
-2.61974 -0.002021 0.039063
-2.59613 0.00383 0.043457
-2.60025 0.00303 0.043457
-2.61201 0.001964 0.043457
-2.61561 -0.001221 0.042969
-2.60805 0.001228 0.043457
-2.60389 0.000937 0.043457
-2.59265 0.004389 0.043945
-2.56833 0.002399 0.04248
-2.57204 0.002487 0.04248
-2.56032 0.004645 0.042969
-2.56417 0.002107 0.04248
-2.51548 -0.002964 0.043945
-2.52328 -0.004766 0.043945
-2.51916 -0.003967 0.043945
-2.50716 -0.003547 0.043457
-2.51108 -0.003902 0.043457
-2.43139 -0.002208 0.041504
-2.43503 -0.004302 0.041016
-2.4275 -0.000762 0.041992
-2.42382 0.000241 0.041992
-2.41962 -0.001142 0.041504
-2.41546 -0.001433 0.041016
-2.41154 -0.001077 0.041016
-2.38397 0.004038 0.041504
-2.40738 -0.001369 0.041016
-2.40346 -0.001013 0.041016
-2.39961 0.001525 0.041504
-2.39226 0.00353 0.041504
-2.39618 0.003174 0.041504
-2.38001 0.003303 0.041016
-2.38813 0.00433 0.041504
-2.37585 0.003011 0.041016
-2.37169 0.00272 0.040527
-2.36769 0.000893 0.040039
-2.36357 0.001693 0.040039
-2.35961 0.000957 0.040039
-2.35549 0.001757 0.040039
-2.35108 0.000818 0.039551
-2.34292 -0.0013 0.038574
-2.34705 -0.0021 0.038574
-2.3356 0.001796 0.039063
-2.33904 0.000147 0.039063
-2.33172 0.003243 0.039551
-2.32756 0.002952 0.039063
-2.32344 0.003751 0.039063
-2.26203 -0.002841 0.039551
-2.26591 -0.004288 0.039551
-2.25759 -0.004871 0.039063
-2.25322 -0.004718 0.039063
-2.20921 -0.001213 0.038086
-2.21281 -0.004398 0.037598
-2.22481 -0.004817 0.037598
-2.14931 0.004159 0.036621
-2.15763 0.004742 0.037109
-2.14494 0.004312 0.036621
-2.14098 0.003576 0.036133
-2.13706 0.003932 0.036133
-2.11677 0.00486 0.035645
-2.12874 0.003349 0.035645
-2.13294 0.004732 0.036133
-2.12482 0.003705 0.035645
-2.12042 0.002766 0.035156
-2.20577 0.000437 0.038086
-2.17772 0.004258 0.038086
-2.18964 0.001656 0.037598
-2.19748 0.000945 0.038086
-2.20185 0.000793 0.038086
-2.19352 0.00021 0.037598
-2.1816 0.002812 0.037598
-2.18548 0.001365 0.037598
-2.17355 0.003967 0.037598
-2.07536 0.001501 0.037109
-2.06707 0.002009 0.036621
-2.09873 -0.004997 0.036621
-2.10245 -0.004909 0.036621
-2.09045 -0.004489 0.036621
-2.09461 -0.004197 0.036621
-2.08677 -0.003486 0.036621
-2.0712 0.00121 0.036621
-2.07904 0.000498 0.037109
-2.08292 -0.000948 0.037109
-2.06312 0.001274 0.036621
-2.05875 0.001426 0.036133
-2.05091 0.002137 0.036133
-2.05503 0.001338 0.036133
-2.03378 -0.000323 0.034668
-2.04675 0.001846 0.036133
-2.04283 0.002202 0.035645
-2.03839 0.000172 0.035156
-2.02594 0.000389 0.034668
-2.0303 0.000236 0.034668
-2.02226 0.001391 0.034668
-2.01734 -0.001933 0.033691
-2.00933 0.000314 0.033691
-2.01273 -0.002427 0.033203
-2.00569 0.002408 0.03418
-1.96768 -0.003692 0.035156
-1.93938 -0.000518 0.034668
-1.93106 -0.001101 0.03418
-1.95163 -0.00029 0.035156
-1.96355 -0.002892 0.035156
-1.95987 -0.00189 0.035156
-1.94767 -0.001026 0.034668
-1.95527 -0.002384 0.035156
-1.9433 -0.000873 0.034668
-1.93502 -0.000365 0.03418
-1.91005 -0.002114 0.032715
-1.92281 0.000499 0.03418
-1.9267 -0.000948 0.033691
-1.91865 0.000207 0.033691
-1.91401 -0.001378 0.033203
-1.90516 -0.004347 0.032227
-1.89784 -0.00125 0.032227
-1.89424 0.001935 0.032715
-1.84361 -0.002413 0.033691
-1.8597 -0.004723 0.033691
-1.85146 -0.003124 0.033691
-1.84778 -0.002121 0.033691
-1.83949 -0.001613 0.033691
-1.83145 -0.000458 0.033203
-1.83509 -0.002552 0.033203
-1.82656 -0.002691 0.032715
-1.81092 -0.000177 0.032227
-1.82312 -0.001041 0.032715
-1.81436 -0.001827 0.032227
-1.81872 -0.001979 0.032227
-1.80583 -0.001966 0.031738
-1.80215 -0.000963 0.031738
-1.79803 -0.000163 0.031738
-1.79334 -0.00284 0.030762
-1.78242 0.003441 0.031738
-1.78946 -0.001393 0.030762
-1.78606 0.001348 0.03125
-1.77854 0.004888 0.031738
-1.76537 0.003164 0.030762
-1.75184 -0.002481 0.028809
-1.74092 0.0038 0.029297
-1.74848 0.001351 0.029297
-1.7446 0.002798 0.029297
-1.69288 -0.001512 0.029785
-1.70137 -0.002464 0.030273
-1.70501 -0.004558 0.029785
-1.69701 -0.002312 0.029785
-1.68896 -0.001156 0.029785
-1.6856 0.002676 0.030273
-1.6812 0.001737 0.029785
-1.67335 0.002448 0.029785
-1.67752 0.00274 0.029785
-1.66507 0.002956 0.029297
-1.66071 0.003109 0.029297
-1.65582 0.000876 0.02832
-1.66927 0.004339 0.029785
-1.62976 -0.000834 0.013672
-1.63412 -0.000987 0.013672
-1.62296 0.004647 0.018555
-1.62684 0.003201 0.01416
-1.61735 0.000474 0.021484
-1.60927 0.000538 0.025391
-1.61215 -0.004588 0.024414
-1.60539 0.001984 0.025391
-1.56199 -0.001742 0.026367
-1.56584 -0.00428 0.026367
-1.55735 -0.003328 0.025879
-1.53693 0.000227 0.025391
-1.54085 -0.000129 0.025391
-1.54882 -0.003467 0.025391
-1.55274 -0.003822 0.025391
-1.5447 -0.002667 0.025391
-1.53305 0.001673 0.025391
-1.52913 0.002029 0.025391
-1.52456 0.002626 0.024902
-1.52112 0.004275 0.025391
-1.51236 0.003489 0.024414
-1.50383 0.003351 0.023926
-1.50703 0.001054 0.023438
-1.48869 -0.004642 0.025391
-1.48485 -0.002104 0.025879
-1.47781 0.002731 0.026367
-1.46976 0.003886 0.026367
-1.4732 0.002237 0.025879
-1.48169 0.001284 0.026367
-1.46492 0.002745 0.025391
-1.46124 0.003747 0.025391
-1.45711 0.004547 0.025391
-1.39654 0.003169 0.021484
-1.37684 -0.004226 0.022949
-1.37416 0.000456 0.023438
-1.37004 0.001256 0.023438
-1.36639 0.003349 0.023926
-1.35791 0.004302 0.023438
-1.35399 0.004657 0.023438
-1.34962 0.00481 0.022949
-1.28159 -0.003736 0.020996
-1.27943 0.003331 0.022461
-1.17404 0.001335 0.018555
-1.20343 -0.001877 0.02002
-1.20707 -0.003971 0.02002
-1.19955 -0.00043 0.02002
-1.19542 0.000369 0.02002
-1.19154 0.001816 0.02002
-1.18669 0.000675 0.019531
-1.1772 -0.002053 0.018066
-1.18136 -0.001761 0.018555
-1.15518 -0.000845 0.021484
-1.15906 -0.002292 0.021484
-1.1629 -0.00483 0.020996
-1.14377 0.004142 0.021484
-1.14765 0.002695 0.021484
-1.15178 0.001896 0.021484
-1.13504 0.004447 0.020996
-1.08414 -0.001639 0.020508
-1.09235 -0.004329 0.020508
-1.08871 -0.002235 0.020508
-1.08118 0.001305 0.020996
-1.0771 0.003196 0.020996
-1.07153 0.000113 0.019531
-1.05964 0.003806 0.019531
-1.06692 -0.000381 0.019043
-1.06304 0.001066 0.019531
-1.01726 -0.002141 0.019531
-1.01338 -0.000694 0.019531
-1.0209 -0.004234 0.019531
-1.00929 0.001197 0.02002
-1.00128 0.003443 0.019531
-1.00589 0.003938 0.02002
-0.997161 0.004243 0.019531
-0.933036 0.001241 0.018066
-0.936398 -0.002591 0.017578
-0.925271 0.004135 0.018555
-0.929154 0.002688 0.018555
-0.867743 -0.003904 0.016602
-0.860258 0.000727 0.01709
-0.863899 -0.001367 0.016602
-0.856375 0.002174 0.01709
-0.852011 0.002327 0.016602
-0.834831 0.004675 0.015625
-0.841429 -0.000362 0.015137
-0.845514 -0.002253 0.015137
-0.837991 0.001287 0.015137
-0.77738 -0.001182 0.01416
-0.780539 -0.00457 0.01416
-0.770097 0.003006 0.014648
-0.773739 0.000912 0.014648
-0.708357 -0.000516 0.013184
-0.703231 -0.003396 0.013184
-0.707355 -0.004196 0.013184
-0.712684 -0.00176 0.013184
-0.698905 -0.002152 0.012695
-0.701075 0.003672 0.013672
-0.704475 0.000931 0.013184
-0.695263 -5.8e-05 0.013184
-0.683172 0.004079 0.012695
-0.691178 0.001833 0.013184
-0.687981 0.004129 0.013184
-0.635935 0.00289 0.012207
-0.64054 0.003385 0.012695
-0.65239 -0.0014 0.012695
-0.656032 -0.003493 0.012695
-0.648508 4.7e-05 0.012695
-0.642938 -0.003036 0.012695
-0.644664 0.002585 0.013184
-0.638611 -0.001792 0.012207
-0.629476 -0.000598 0.01123
-0.633079 -0.003783 0.01123
-0.624629 -0.00174 0.010254
-0.623906 -0.003681 0.010742
-0.6167 0.002689 0.010742
-0.619579 -0.002437 0.009766
-0.615697 -0.00099 0.010742
-0.612297 0.00175 0.010742
-0.613058 0.004783 0.010742
-0.569462 0.0015 0.01123
-0.5653 0.001209 0.01123
-0.574271 0.001551 0.01123
-0.576706 -0.003779 0.010254
-0.561215 0.0031 0.01123
-0.568459 -0.002179 0.010742
-0.503675 0.00096 0.010254
-0.500275 0.003701 0.010742
-0.434323 0.004696 0.009277
-0.437482 0.001308 0.008789
-0.440882 -0.001433 0.008789
-0.444041 -0.004821 0.008301
-0.368548 -0.001744 0.006836
-0.371948 -0.004485 0.006836
-0.365833 0.001847 0.007324
-0.361747 0.003738 0.007324
-0.32551 -0.00155 0.007324
-0.32891 -0.004291 0.007324
-0.317339 0.002232 0.007324
-0.321222 0.000785 0.007812
-0.292851 0.001777 0.004883
-0.288728 0.002577 0.004883
-0.252529 -0.00162 0.005371
-0.312772 0.002829 0.007324
-0.307963 0.002778 0.006836
-0.24484 0.003456 0.005371
-0.247999 6.8e-05 0.005371
-0.240476 0.003609 0.005371
-0.191779 0.004437 0.005371
-0.206991 -0.004179 0.005371
-0.194697 0.000402 0.004883
-0.19858 -0.001044 0.004883
-0.202221 -0.003138 0.004883
-0.181959 0.004781 0.004395
-0.176465 0.00388 0.003906
-0.112454 0.004152 0.002441
-0.128592 -0.002967 0.00293
-0.115854 0.001411 0.002441
-0.119698 -0.001127 0.001953
-0.12334 -0.00322 0.001953
-0.078081 -0.004041 0.002441
-0.069429 -0.001554 0.001953
-0.073273 -0.004092 0.001953
-0.06462 -0.001604 0.001465
-0.056931 0.003472 0.001465
-0.06122 0.001137 0.001465
-0.052605 0.004716 0.001465
-0.022559 -0.004722 0.001465
-0.017788 -0.003681 0.000977
-0.009579 -0.00099 0.000977
-0.013906 -0.002234 0.000977
0.018918 0.002628 -0.005859
-0.005012 -0.000394 0.000488
0 0 0
0.035158 0.000574 -0.012695
0.069593 0.003089 -0.010742
0.067843 -0.00309 -0.011719
0.076255 4.4e-05 -0.007324
0.081508 -0.000209 0.001465
0.07897 0.003635 -0.002441
0.079655 0.002785 0.01123
0.080581 0.001288 0.015625
0.080822 0.000641 0.006348
0.081064 -6e-06 0.02002
0.081749 -0.000856 0.029297
0.081508 -0.000209 0.024902
0.081305 -0.000653 0.03418
0.081508 -0.000209 0.043457
0.08199 -0.001503 0.038574
0.081508 -0.000209 0.052734
0.081749 -0.000856 0.047852
0.081064 -6e-06 0.057617
0.081266 0.000438 0.066895
0.081508 -0.000209 0.062012
0.081749 -0.000856 0.075684
0.081305 -0.000653 0.071289
0.081305 -0.000653 0.080566
0.081064 -6e-06 0.089844
0.081508 -0.000209 0.084961
0.081305 -0.000653 0.099121
0.080822 0.000641 0.094727
0.081749 -0.000856 0.103516
0.081266 0.000438 0.113281
0.081064 -6e-06 0.108398
0.08199 -0.001503 0.12207
0.081749 -0.000856 0.117676
0.081749 -0.000856 0.126953
0.082675 -0.002353 0.135742
0.082231 -0.00215 0.131348
0.08199 -0.001503 0.145508
0.082472 -0.002797 0.140137
0.081749 -0.000856 0.149902
0.082231 -0.00215 0.15918
0.08199 -0.001503 0.154785
0.082231 -0.00215 0.168457
0.082675 -0.002353 0.163574
0.082472 -0.002797 0.177246
0.082675 -0.002353 0.172852
0.083601 -0.00385 0.181641
0.083157 -0.003647 0.190918
0.082472 -0.002797 0.186523
0.083157 -0.003647 0.200195
0.083843 -0.004497 0.195313
0.081064 -6e-06 0.205566
0.080581 0.001288 0.210449
0.080137 0.001491 0.224609
0.081266 0.000438 0.214844
0.080822 0.000641 0.219727
0.079896 0.002138 0.229004
0.080581 0.001288 0.233398
0.080822 0.000641 0.238281
0.080581 0.001288 0.247559
0.081749 -0.000856 0.242676
0.080822 0.000641 0.251953
0.080581 0.001288 0.26123
0.080137 0.001491 0.256836
0.080581 0.001288 0.270508
0.080822 0.000641 0.265625
0.08034 0.001935 0.275391
0.080581 0.001288 0.28418
0.079655 0.002785 0.279785
0.080581 0.001288 0.289062
0.080822 0.000641 0.293457
0.079414 0.003432 0.29834
0.080099 0.002582 0.307617
0.079655 0.002785 0.303223
0.08034 0.001935 0.316406
0.080581 0.001288 0.312012
0.079655 0.002785 0.326172
0.080137 0.001491 0.321289
0.079414 0.003432 0.330566
0.080137 0.001491 0.339355
0.08034 0.001935 0.334961
0.08199 -0.001503 0.348145
0.081266 0.000438 0.34375
0.080581 0.001288 0.362305
0.081266 0.000438 0.357422
0.081305 -0.000653 0.353027
0.080581 0.001288 0.371582
0.080137 0.001491 0.367187
0.079896 0.002138 0.380859
0.080581 0.001288 0.375977
0.08034 0.001935 0.385254
0.080822 0.000641 0.394531
0.080822 0.000641 0.389648
0.081749 -0.000856 0.40332
0.081266 0.000438 0.398926
0.081305 -0.000653 0.407715
0.079655 0.002785 0.41748
0.08034 0.001935 0.426758
0.079655 0.002785 0.422363
0.081266 0.000438 0.412598
0.079655 0.002785 0.431152
0.079655 0.002785 0.44043
0.079655 0.002785 0.436035
0.079655 0.002785 0.444824
0.078729 0.004282 0.449707
0.07897 0.003635 0.458984
0.079414 0.003432 0.454102
0.080099 0.002582 0.472168
0.079896 0.002138 0.467773
0.079414 0.003432 0.463379
0.080099 0.002582 0.481445
0.079896 0.002138 0.48584
0.079414 0.003432 0.477051
0.079896 0.002138 0.495117
0.08034 0.001935 0.490723
0.079896 0.002138 0.504395
0.080581 0.001288 0.499512
0.079655 0.002785 0.513184
0.079655 0.002785 0.508789
0.079655 0.002785 0.518066
0.079655 0.002785 0.526855
0.079896 0.002138 0.522461
0.080137 0.001491 0.536133
0.080581 0.001288 0.53125
0.079655 0.002785 0.541016
0.079896 0.002138 0.549805
0.079655 0.002785 0.54541
0.079655 0.002785 0.559082
0.080137 0.001491 0.554199
0.080099 0.002582 0.567871
0.079896 0.002138 0.563477
0.080099 0.002582 0.572754
0.079655 0.002785 0.581543
0.079414 0.003432 0.577148
0.079655 0.002785 0.59082
0.080581 0.001288 0.599609
0.079896 0.002138 0.595215
0.079414 0.003432 0.586426
0.08034 0.001935 0.604004
0.079896 0.002138 0.608887
0.081266 0.000438 0.613281
0.079655 0.002785 0.626953
0.081064 -6e-06 0.62207
0.081749 -0.000856 0.617676
0.079896 0.002138 0.63623
0.079896 0.002138 0.64502
0.08034 0.001935 0.640625
0.07897 0.003635 0.631836
0.079655 0.002785 0.654297
0.08034 0.001935 0.658691
0.079414 0.003432 0.649902
0.079655 0.002785 0.667969
0.080581 0.001288 0.663086
0.08034 0.001935 0.672363
0.079414 0.003432 0.676758
0.079655 0.002785 0.681641
0.078729 0.004282 0.690918
0.07897 0.003635 0.686035
0.079211 0.002988 0.704102
0.079414 0.003432 0.699707
0.078729 0.004282 0.695312
0.07897 0.003635 0.708984
0.079655 0.002785 0.722168
0.079211 0.002988 0.717773
0.079414 0.003432 0.713379
0.080099 0.002582 0.730957
0.079896 0.002138 0.726562
0.079896 0.002138 0.73584
0.07897 0.003635 0.740234
0.079655 0.002785 0.749512
0.079173 0.004079 0.745117
0.079173 0.004079 0.753906
0.079655 0.002785 0.758301
0.079655 0.002785 0.767578
0.079414 0.003432 0.763184
0.079896 0.002138 0.771973
0.079414 0.003432 0.776367
0.079173 0.004079 0.785645
0.079173 0.004079 0.78125
0.08034 0.001935 0.798828
0.079414 0.003432 0.794434
0.078729 0.004282 0.790039
0.079896 0.002138 0.803223
0.079655 0.002785 0.816895
0.080099 0.002582 0.8125
0.078729 0.004282 0.808105
0.082675 -0.002353 0.825684
0.080822 0.000641 0.821289
0.083843 -0.004497 0.830078
0.080822 0.000641 0.839355
0.082231 -0.00215 0.834473
0.080822 0.000641 0.848633
0.080822 0.000641 0.84375
0.080099 0.002582 0.853027
0.07746 -0.003191 0.861816
0.07859 -0.004244 0.856934
0.076978 -0.001897 0.871094
0.077663 -0.002747 0.866211
0.076978 -0.001897 0.879883
0.077219 -0.002544 0.875488
0.077904 -0.003394 0.888672
0.076978 -0.001897 0.884277
0.077904 -0.003394 0.893555
0.076052 -0.0004 0.902832
0.076978 -0.001897 0.897949
0.078146 -0.004041 0.911133
0.078146 -0.004041 0.906738
0.077663 -0.002747 0.916016
0.078146 -0.004041 0.92041
0.078831 -0.004891 0.924805
0.079655 0.002785 1.02881
0.079896 0.002138 1.0332
0.080581 0.001288 1.04639
0.081749 -0.000856 1.04199
0.081305 -0.000653 1.0376
0.081064 -6e-06 1.05078
0.081266 0.000438 1.06006
0.081749 -0.000856 1.05518
0.081064 -6e-06 1.06445
0.081064 -6e-06 1.07324
0.08199 -0.001503 1.06885
0.08199 -0.001503 1.08252
0.081305 -0.000653 1.07764
0.081305 -0.000653 1.09131
0.08199 -0.001503 1.08691
0.081064 -6e-06 1.0957
0.080822 0.000641 1.10498
0.081749 -0.000856 1.1001
0.081305 -0.000653 1.11377
0.081508 -0.000209 1.10938
0.081305 -0.000653 1.12256
0.081749 -0.000856 1.11816
0.081508 -0.000209 1.12744
0.080581 0.001288 1.14551
0.080581 0.001288 1.14062
0.081064 -6e-06 1.13623
0.081508 -0.000209 1.13184
0.082434 -0.001706 1.1543
0.08199 -0.001503 1.14941
0.081305 -0.000653 1.15869
0.082231 -0.00215 1.16748
0.08199 -0.001503 1.16309
0.081546 -0.0013 1.17676
0.082231 -0.00215 1.17188
0.082231 -0.00215 1.18555
0.082231 -0.00215 1.18115
0.08199 -0.001503 1.18994
0.08199 -0.001503 1.19873
0.08199 -0.001503 1.19434
0.082231 -0.00215 1.20801
0.08199 -0.001503 1.20361
0.082472 -0.002797 1.2168
0.08199 -0.001503 1.2124
0.082916 -0.003 1.22119
0.082916 -0.003 1.23047
0.082472 -0.002797 1.22607
0.082231 -0.00215 1.23926
0.082231 -0.00215 1.23486
0.084464 0.002735 1.25293
0.084667 0.003179 1.24853
0.08364 -0.004941 1.27978
0.08364 -0.004941 1.37353
0.08364 -0.004941 1.40967
0.083843 -0.004497 1.41846
0.083843 -0.004497 1.42285
0.083843 -0.004497 1.43213
0.085149 0.001885 1.45898
0.085149 0.001885 1.46338
-4.78271 -0.000743 1.51367
-4.78251 -0.000299 1.48144
-4.78295 -9.6e-05 1.47705
-4.78291 -0.001187 1.48926
-4.78251 -0.000299 1.48535
-4.78251 -0.000299 1.49756
-4.78352 -0.002519 1.49316
-4.78271 -0.000743 1.50537
-4.78291 -0.001187 1.50147
-4.78271 -0.000743 1.50977
-4.78311 -0.001631 1.52148
-4.78311 -0.001631 1.51758
-4.78251 -0.000299 1.52588
-4.78271 -0.000743 1.53369
-4.78332 -0.002075 1.52978
-4.78177 0.00366 1.57422
-4.78271 -0.000743 1.54199
-4.78291 -0.001187 1.5376
-4.78271 -0.000743 1.54981
-4.78291 -0.001187 1.5459
-4.78218 0.002772 1.55811
-4.78254 0.000792 1.55371
-4.78193 0.002125 1.56592
-4.78254 0.000792 1.56201
-4.78238 0.002327 1.56982
-4.78137 0.004548 1.58203
-4.78197 0.003216 1.57812
-4.78214 0.00168 1.58643
-4.78271 -0.000743 1.59033
-4.78181 0.004751 1.59814
-4.78193 0.002125 1.59424
-4.78181 0.004751 1.60205
-4.78137 0.004548 1.61865
-4.78197 0.003216 1.67481
-4.78234 0.001236 1.68311
-4.78254 0.000792 1.6792
-4.77973 -0.00479 1.84522
-4.78218 0.002772 1.88916
-4.78291 -0.001187 1.89356
-4.78218 0.002772 1.89746
-4.78157 0.004104 1.90918
-4.77973 -0.00479 1.85742
-4.77973 -0.00479 1.85303
-4.77932 -0.003902 1.86133
-4.77973 -0.00479 1.86963
-4.77973 -0.00479 1.87353
-4.77912 -0.003458 1.88135
-4.78193 0.002125 1.95019
-4.78214 0.00168 1.91748
-4.78218 0.002772 1.91357
-4.78193 0.002125 1.92578
-4.78214 0.00168 1.92188
-4.78137 0.004548 1.94189
-4.78157 0.004104 1.93799
-4.78157 0.004104 1.9458
-4.78157 0.004104 1.95801
-4.78254 0.000792 1.9541
-4.78197 0.003216 1.96631
-4.78177 0.00366 1.96191
-4.78177 0.00366 1.97412
-4.78177 0.00366 1.97022
-4.78197 0.003216 2.01074
-4.78214 0.00168 2.01514
-4.78271 -0.000743 2.01953
-4.78214 0.00168 2.02734
-4.78214 0.00168 2.02344
-4.78177 0.00366 2.03516
-4.78214 0.00168 2.03125
-4.78197 0.003216 2.04346
-4.78218 0.002772 2.03955
-4.78177 0.00366 2.05176
-4.78218 0.002772 2.04736
-4.78137 0.004548 2.05566
-4.78218 0.002772 2.09619
-4.78291 -0.001187 2.13769
-4.78369 -0.004055 2.10498
-4.78328 -0.003166 2.10107
-4.78287 -0.002278 2.11328
-4.78287 -0.002278 2.10889
-4.78311 -0.001631 2.12109
-4.78291 -0.001187 2.11719
-4.78291 -0.001187 2.1294
-4.78291 -0.001187 2.12549
-4.78271 -0.000743 2.1333
-4.78287 -0.002278 2.14551
-4.78291 -0.001187 2.1416
-4.78311 -0.001631 2.15381
-4.78311 -0.001631 2.1499
-4.78332 -0.002075 2.16211
-4.78311 -0.001631 2.15772
-4.78271 -0.000743 2.19873
-4.78311 -0.001631 2.16602
-4.78271 -0.000743 2.17432
-4.78311 -0.001631 2.17041
-4.78271 -0.000743 2.18262
-4.78287 -0.002278 2.17822
-4.78271 -0.000743 2.19043
-4.78271 -0.000743 2.18652
-4.78311 -0.001631 2.19482
-4.78311 -0.001631 2.20703
-4.78311 -0.001631 2.20312
-4.78271 -0.000743 2.21484
-4.78271 -0.000743 2.21094
-4.78291 -0.001187 2.22315
-4.7823 0.000145 2.21924
-4.78311 -0.001631 2.26025
-4.78271 -0.000743 2.23144
-4.78271 -0.000743 2.22754
-4.78291 -0.001187 2.23975
-4.78311 -0.001631 2.23584
-4.78291 -0.001187 2.24805
-4.78311 -0.001631 2.24365
-4.78271 -0.000743 2.25586
-4.78251 -0.000299 2.25195
-4.78311 -0.001631 2.26856
-4.78291 -0.001187 2.26416
-4.78332 -0.002075 2.27637
-4.78287 -0.002278 2.27246
-4.78311 -0.001631 2.28467
-4.78287 -0.002278 2.28076
-4.78311 -0.001631 2.29297
-4.78291 -0.001187 2.28857
-4.78271 -0.000743 2.30078
-4.78271 -0.000743 2.29688
-4.78348 -0.003611 2.30566
-4.78646 0.000437 2.31348
-4.78251 -0.000299 2.31299
-4.76214 -0.001553 2.32519
-4.77324 0.003521 2.31641
-4.76255 -0.002442 2.32959
-4.76157 0.00087 2.3208
-4.79516 -0.00096 2.38769
-4.79516 -0.00096 2.36328
-4.79556 -0.001848 2.37158
-4.79556 -0.001848 2.36719
-4.79556 -0.001848 2.3794
-4.79536 -0.001404 2.37549
-4.79556 -0.001848 2.38379
-4.79516 -0.00096 2.396
-4.79516 -0.00096 2.39209
-4.79577 -0.002292 2.40869
-4.79516 -0.00096 2.4043
-4.79495 -0.000516 2.3999
-4.79536 -0.001404 2.44531
-4.79556 -0.001848 2.4165
-4.79516 -0.00096 2.4126
-4.79556 -0.001848 2.42481
-4.79536 -0.001404 2.4209
-4.79532 -0.002495 2.4331
-4.79556 -0.001848 2.4292
-4.79556 -0.001848 2.44141
-4.79516 -0.00096 2.4375
-4.79556 -0.001848 2.45361
-4.79577 -0.002292 2.44971
-4.79532 -0.002495 2.45801
-4.79532 -0.002495 2.47461
-4.79577 -0.002292 2.4707
-4.79536 -0.001404 2.46631
-4.79556 -0.001848 2.46191
-4.79552 -0.002939 2.479
-4.79532 -0.002495 2.48682
-4.79593 -0.003827 2.48291
-4.79593 -0.003827 2.4956
-4.79552 -0.002939 2.49121
-4.79552 -0.002939 2.50391
-4.79613 -0.004271 2.5
-4.79613 -0.004271 2.51221
-4.79593 -0.003827 2.50781
-4.79589 -0.004918 2.52051
-4.79589 -0.004918 2.53711
-4.79834 0.002643 2.63574
-4.79797 0.004623 2.61475
-4.79858 0.00329 2.62305
-4.79818 0.004179 2.61865
-4.79834 0.002643 2.62744
-4.79854 0.002199 2.63184
-4.79895 0.001311 2.64453
-4.79854 0.002199 2.64014
-4.79915 0.000867 2.65283
-4.79915 0.000867 2.64844
-4.79891 0.00022 2.66113
-4.79911 -0.000224 2.65723
-4.79928 -0.001759 2.67432
-4.79911 -0.000224 2.66992
-4.79891 0.00022 2.66553
-4.79952 -0.001112 2.67822
-4.79969 -0.002648 2.68262
-4.79989 -0.003092 2.69141
-4.79989 -0.003092 2.68701
-4.80029 -0.00398 2.69971
-4.79989 -0.003092 2.69531
-4.79985 -0.004183 2.7041
-4.80213 0.004914 2.78613
-4.80213 0.004914 2.78174
-4.80254 0.004026 2.82422
-4.80234 0.00447 2.80713
-4.80234 0.00447 2.80322
-4.8023 0.003379 2.81592
-4.80234 0.00447 2.81152
-4.80234 0.00447 2.81982
-4.8025 0.002935 2.83301
-4.8023 0.003379 2.82861
-4.8025 0.002935 2.84131
-4.8023 0.003379 2.83691
-4.8025 0.002935 2.84961
-4.8023 0.003379 2.84522
-4.80267 0.0014 2.88818
-4.8023 0.003379 2.854
-4.80291 0.002047 2.86279
-4.8023 0.003379 2.85791
-4.80291 0.002047 2.87109
-4.80271 0.002491 2.8667
-4.8025 0.002935 2.8794
-4.8025 0.002935 2.875
-4.80271 0.002491 2.88379
-4.80267 0.0014 2.89648
-4.80291 0.002047 2.89209
-4.80287 0.000955 2.90527
-4.80267 0.0014 2.90088
-4.80267 0.0014 2.90918
-4.80267 0.0014 2.91357
-4.80328 6.7e-05 2.91797
-4.80287 0.000955 2.92188
-4.80267 0.0014 2.92627
-4.80287 0.000955 2.93457
-4.80328 6.7e-05 2.93066
-4.80287 0.000955 2.94336
-4.80287 0.000955 2.93897
-4.80307 0.000511 2.94775
-4.80307 0.000511 2.95606
-4.80307 0.000511 2.95166
-4.80287 0.000955 2.96435
-4.80287 0.000955 2.96875
-4.80267 0.0014 2.95996
-4.80267 0.0014 2.97315
-4.80287 0.000955 2.98144
-4.80307 0.000511 2.97754
-4.80287 0.000955 2.99023
-4.80328 6.7e-05 2.98584
-4.80267 0.0014 2.99414
-4.80267 0.0014 3.00293
-4.80267 0.0014 2.99853
-4.80267 0.0014 3.01123
-4.80287 0.000955 3.00732
-4.80287 0.000955 3.02002
-4.80287 0.000955 3.01562
-4.80307 0.000511 3.03272
-4.80267 0.0014 3.02832
-4.80267 0.0014 3.02393
-4.80267 0.0014 3.03711
-4.80291 0.002047 3.07519
-4.80267 0.0014 3.04102
-4.80291 0.002047 3.04981
-4.80291 0.002047 3.04541
-4.80287 0.000955 3.0625
-4.80291 0.002047 3.0581
-4.80291 0.002047 3.05371
-4.80291 0.002047 3.0669
-4.80267 0.0014 3.07129
-4.80267 0.0014 3.08398
-4.80291 0.002047 3.07959
-4.80291 0.002047 3.08789
-4.80267 0.0014 3.09668
-4.80291 0.002047 3.09277
-4.80291 0.002047 3.10547
-4.80287 0.000955 3.10107
-4.80271 0.002491 3.11377
-4.80291 0.002047 3.10986
-4.80287 0.000955 3.12256
-4.80267 0.0014 3.11816
-4.80271 0.002491 3.13086
-4.80267 0.0014 3.12695
-4.80267 0.0014 3.13574
-4.80287 0.000955 3.14404
-4.80267 0.0014 3.14014
-4.80328 6.7e-05 3.15332
-4.80287 0.000955 3.14844
-4.80348 -0.000377 3.16211
-4.80307 0.000511 3.15723
-4.80324 -0.001024 3.1665
-4.80344 -0.001468 3.17529
-4.80324 -0.001024 3.1709
-4.80381 -0.003447 3.18408
-4.80364 -0.001912 3.17969
-4.80364 -0.001912 3.19238
-4.80361 -0.003003 3.18848
-4.80401 -0.003891 3.19727
-4.80422 -0.004336 3.20606
-4.80422 -0.004336 3.20166
-4.80442 -0.00478 3.21094
-4.80687 0.002782 3.34375
-4.80646 0.00367 3.33887
-4.80605 0.004559 3.34766
-4.80385 -0.002356 3.36231
-4.80442 -0.00478 3.35889
-4.80364 -0.001912 3.37109
-4.80405 -0.0028 3.36719
-4.80344 -0.001468 3.37988
-4.80364 -0.001912 3.37549
-4.80324 -0.001024 3.38867
-4.80324 -0.001024 3.38379
-4.80364 -0.001912 3.39307
-4.80344 -0.001468 3.40185
-4.80364 -0.001912 3.39746
-4.80364 -0.001912 3.40625
-4.80267 0.0014 3.40967
-4.80328 6.7e-05 3.41455
-4.80291 0.002047 3.41846
-4.80213 0.004914 3.42627
-4.80271 0.002491 3.42285
-4.80005 -0.004627 3.45068
-4.79928 -0.001759 3.45898
-4.79989 -0.003092 3.45508
-4.79871 0.000664 3.4668
-4.79871 0.000664 3.4624
-4.79797 0.004623 3.47461
-4.79834 0.002643 3.4707
-4.79573 -0.003383 3.49463
-4.79401 0.003887 3.50537
-4.79458 0.001464 3.50195
-4.79536 -0.001404 3.49853
-4.79079 -0.000807 3.52002
-4.79157 -0.003675 3.5166
-4.79026 0.002707 3.52344
-4.7874 -0.003966 3.53418
-4.78569 0.003304 3.54053
-4.78687 -0.000452 3.5376
-4.78287 -0.002278 3.55127
-4.78116 0.004992 3.55762
-4.78214 0.00168 3.5542
-4.77838 0.000501 3.56787
-4.77912 -0.003458 3.56445
-4.77402 0.000653 3.58057
-4.77475 -0.003305 3.57764
-4.77083 -0.00295 3.59082
-4.76989 0.001453 3.59375
-4.76647 -0.002797 3.60352
-4.76255 -0.002442 3.6167
-4.75439 -0.00456 3.63916
-4.76553 0.001606 3.60644
-4.7612 0.002849 3.61914
-4.75778 -0.001401 3.6294
-4.75708 0.003649 3.63232
-4.75386 -0.001045 3.64258
-4.75231 0.00469 3.64502
-4.75047 -0.004204 3.65234
-4.74933 0.000643 3.65527
-4.7448 0.002331 3.66748
-4.74574 -0.002072 3.66455
-4.74214 -0.004787 3.67432
-4.7408 0.000504 3.67676
-4.73651 0.002839 3.68945
-4.73725 -0.00112 3.68652
-4.73231 0.001456 3.69873
-4.73369 -0.002744 3.69531
-4.7286 0.001368 3.70752
-4.7297 -0.00457 3.70508
-4.72464 0.000632 3.71631
-4.72068 -0.000103 3.7251
-4.71672 -0.000839 3.73438
-4.71235 -0.000686 3.74268
-4.70823 0.000113 3.75147
-4.7039 0.001357 3.75977
-4.70064 -0.004428 3.76611
-4.69974 0.001066 3.76856
-4.69521 0.002753 3.77685
-4.69652 -0.003629 3.77441
-4.69219 -0.002385 3.78272
-4.69109 0.003553 3.78516
-4.68787 -0.001141 3.79102
-4.67991 -0.003703 3.80518
-4.68632 0.004594 3.79346
-4.68313 0.000991 3.79932
-4.67885 0.003326 3.80713
-4.67582 -0.001813 3.81299
-4.67089 0.000763 3.8208
-4.66767 -0.003931 3.82715
-4.66579 0.004875 3.82812
-4.66277 -0.000264 3.83447
-4.65979 -0.004311 3.84033
-4.65509 -0.001088 3.84815
-4.65868 0.001627 3.84277
-4.64694 -0.003206 3.86182
-4.65016 0.001488 3.85547
-4.64546 0.004712 3.86328
-4.6251 0.003457 3.89453
-4.64228 0.001108 3.86914
-4.63905 -0.003586 3.875
-4.62677 -0.004904 3.89307
-4.63057 -0.002634 3.88769
-4.63396 0.000526 3.88232
-4.62151 0.000742 3.89941
-4.61832 -0.002861 3.90527
-4.60984 -0.001909 3.91797
-4.61705 0.004612 3.90723
-4.61367 0.001453 3.9126
-4.60498 0.00285 3.92529
-4.60155 -0.0014 3.93115
-4.59689 0.002914 3.93848
-4.59367 -0.00178 3.94434
-4.58538 -0.001272 3.95752
-4.58881 0.002978 3.95166
-4.5822 -0.004875 3.96338
-4.57669 0.000124 3.97022
-4.58028 0.002839 3.96484
-4.57241 0.002459 3.97803
-4.56881 -0.000256 3.9834
-4.56502 -0.002527 3.98877
-4.5602 0.003323 3.99512
-4.56167 -0.004594 3.99365
-4.55225 0.000761 4.00488
-4.5558 0.002385 4
-4.54869 -0.000863 4.01025
-4.54449 -0.002246 4.01514
-4.54094 -0.003869 4.02002
-4.53698 -0.004605 4.02441
-4.53927 0.004492 4.021
-4.54363 0.004339 4.01709
-4.53551 0.003312 4.02588
-4.53175 0.002133 4.03076
-4.5278 0.001397 4.03564
-4.52384 0.000662 4.04004
-4.52004 -0.001609 4.04541
-4.51608 -0.002345 4.04981
-4.51273 -0.004413 4.05518
-4.5071 0.003213 4.06104
-4.50294 0.002922 4.06543
-4.49918 0.001742 4.07031
-4.49563 0.000118 4.07568
-4.49143 -0.001264 4.08057
-4.48351 -0.002735 4.08984
-4.48771 -0.001353 4.08447
-4.4756 -0.004207 4.09912
-4.47956 -0.003471 4.09424
-4.47437 0.004358 4.1001
-4.47041 0.003622 4.10498
-4.46665 0.002443 4.10986
-4.46249 0.002151 4.11426
-4.45833 0.00186 4.11865
-4.45061 -5.5e-05 4.12842
-4.45457 0.00068 4.12354
-4.44314 -0.001324 4.13769
-4.44686 -0.001235 4.1333
-4.43894 -0.002706 4.14258
-4.43126 -0.00353 4.15186
-4.43498 -0.003442 4.14746
-4.42314 -0.004557 4.16113
-4.42731 -0.004266 4.15674
-4.42959 0.004831 4.15283
-4.42191 0.004007 4.16211
-4.42584 0.003652 4.15771
-4.41755 0.00416 4.1665
-4.40987 0.003336 4.17578
-4.41379 0.00298 4.17139
-4.40591 0.0026 4.18066
-4.40179 0.0034 4.18457
-4.39763 0.003108 4.18896
-4.39367 0.002373 4.19385
-4.37857 -0.004528 4.20947
-4.38951 0.002081 4.19824
-4.38539 0.002881 4.20215
-4.38147 0.003237 4.20654
-4.37342 0.004392 4.21533
-4.3773 0.002945 4.21143
-4.37485 -0.004617 4.21436
-4.36946 0.003656 4.21973
-4.36514 0.0049 4.22363
-4.36657 -0.004109 4.22266
-4.37069 -0.004908 4.21875
-4.31391 -0.004015 4.27148
-4.31808 -0.003724 4.26709
-4.35812 -0.002065 4.23096
-4.36265 -0.003753 4.22705
-4.35379 -0.000821 4.23486
-4.34987 -0.000466 4.23926
-4.34534 0.001222 4.24268
-4.34105 0.003557 4.24658
-4.33836 -0.004652 4.24951
-4.33693 0.004357 4.25049
-4.33404 -0.003408 4.25391
-4.32971 -0.002164 4.25732
-4.32542 0.000171 4.26074
-4.32134 0.002062 4.26465
-4.30942 -0.001236 4.2749
-4.31681 0.003749 4.26856
-4.30513 0.001099 4.27783
-4.30105 0.002989 4.28174
-4.30187 -0.004687 4.28076
-4.29775 -0.003887 4.28467
-4.29366 -0.001996 4.28809
-4.28937 0.000339 4.29199
-4.28505 0.001582 4.29541
-4.2777 -0.002312 4.30176
-4.28199 -0.004647 4.29834
-4.28035 0.004806 4.29883
-4.26868 0.002155 4.30859
-4.27341 2.3e-05 4.30518
-4.2648 0.003602 4.3125
-4.26603 -0.004963 4.31152
-4.2615 -0.003275 4.31543
-4.24966 -0.004391 4.32471
-4.25701 -0.000496 4.31885
-4.24843 0.004174 4.32568
-4.25296 0.002486 4.32178
-4.24108 0.000279 4.33154
-4.24497 -0.001167 4.32764
-4.23357 -0.00208 4.33691
-4.23639 0.003502 4.33447
-4.22904 -0.000392 4.34082
-4.22496 0.001499 4.34424
-4.22146 -0.004934 4.34717
-4.22043 0.003187 4.34814
-4.17667 0.001439 4.38428
-4.21753 -0.004578 4.35156
-4.21288 -0.000264 4.354
-4.20879 0.001627 4.35791
-4.20124 -0.001824 4.36377
-4.20451 0.003962 4.36084
-4.19283 0.001311 4.37109
-4.19716 6.7e-05 4.36719
-4.18875 0.003202 4.375
-4.18937 -0.00403 4.37354
-4.18528 -0.002139 4.37695
-4.18096 -0.000896 4.38135
-4.165 -0.001212 4.39453
-4.16949 -0.003991 4.39111
-4.15662 0.003014 4.40186
-4.16095 0.00177 4.39795
-4.1492 -0.003063 4.40918
-4.15254 0.004905 4.40527
-4.14511 -0.001172 4.4126
-4.13736 -0.004178 4.41846
-4.14086 0.002254 4.41553
-4.12878 0.000492 4.42529
-4.13307 -0.001843 4.42188
-4.12144 -0.003403 4.43164
-4.12429 0.003271 4.42871
-4.11715 -0.001068 4.43506
-4.11286 0.001267 4.43848
-4.10877 0.003158 4.44238
-4.10424 0.004846 4.44629
-4.10544 -0.00481 4.4458
-4.10115 -0.002475 4.44922
-4.09686 -0.00014 4.45312
-4.09277 0.001751 4.45654
-4.08559 -0.003679 4.46338
-4.08869 0.003642 4.46045
-4.0811 -0.0009 4.4668
-4.07702 0.000991 4.4707
-4.07232 0.004214 4.47363
-4.07376 -0.004795 4.47314
-4.06481 0.001855 4.47949
-4.06947 -0.00246 4.47656
-4.06052 0.00419 4.48291
-4.05726 -0.001596 4.48535
-4.04979 -0.002864 4.49023
-4.05281 0.002274 4.48828
-4.0455 -0.000529 4.49414
-4.04084 0.003785 4.49658
-4.03758 -0.002 4.49902
-4.03309 0.000779 4.50244
-4.00974 -0.004523 4.51856
-4.02092 0.002734 4.51074
-4.02558 -0.00158 4.50781
-4.0179 -0.002405 4.51269
-4.01325 0.00191 4.51562
-4.00553 -6e-06 4.521
-4.00084 0.003218 4.52393
-3.99778 -0.003012 4.52686
-3.99357 0.001505 4.5293
-3.98582 -0.001501 4.53516
-3.98908 0.004284 4.53271
-3.98099 0.004349 4.53711
-3.97794 -0.001881 4.54004
-3.96985 -0.001817 4.54443
-3.97324 0.001342 4.54297
-3.96536 0.000962 4.54785
-3.95793 0.000785 4.55225
-3.96194 -0.003288 4.54932
-3.95005 0.000405 4.55713
-3.95402 -0.004759 4.55469
-3.94559 0.004275 4.56006
-3.94209 -0.002157 4.56299
-3.93401 -0.002093 4.56738
-3.93768 0.002804 4.56494
-3.9298 0.002424 4.56982
-3.92613 -0.002473 4.57227
-3.92168 0.001397 4.57471
-3.91842 -0.004388 4.57764
-3.91437 -0.001406 4.58106
-3.91743 0.004823 4.57764
-3.90992 0.002464 4.5835
-3.90179 0.001437 4.58887
-3.90625 -0.002433 4.58594
-3.89007 0.003595 4.59668
-3.89432 0.000169 4.59375
-3.8864 -0.001302 4.59912
-3.8664 0.001364 4.61182
-3.87869 -0.003218 4.60449
-3.88195 0.002568 4.60205
-3.87452 0.002391 4.60693
-3.87081 -0.003598 4.60938
-3.86297 -0.002886 4.61377
-3.85848 -0.000107 4.61719
-3.85084 0.00016 4.62158
-3.84276 0.000224 4.62598
-3.83875 0.004297 4.62891
-3.83508 -0.0006 4.63135
-3.8272 -0.00098 4.63623
-3.83067 0.004361 4.6333
-3.82279 0.003981 4.63818
-3.81495 0.004692 4.64258
-3.81912 -0.000916 4.64062
-3.81144 -0.00174 4.646
-3.80686 0.004756 4.64697
-3.8034 -0.000585 4.6499
-3.79532 -0.000521 4.6543
-3.78744 -0.000901 4.65918
-3.79145 -0.004974 4.65674
-3.7796 -0.00019 4.66357
-3.77151 -0.000125 4.66797
-3.76367 0.000586 4.67236
-3.76025 -0.003664 4.67481
-3.75604 0.000853 4.67725
-3.7522 -0.002509 4.67871
-3.72003 0.002112 4.69531
-3.72824 -0.000579 4.69189
-3.74416 -0.001354 4.68262
-3.74779 0.002452 4.68115
-3.73971 0.002516 4.68555
-3.73591 0.000245 4.68701
-3.73211 0.003875 4.68994
-3.72465 -0.003294 4.69336
-3.71632 -0.003877 4.69824
-3.70852 -0.002074 4.70215
-3.70493 -0.004789 4.70312
-3.71195 0.002176 4.70019
-3.70051 0.000172 4.70557
-3.70438 0.004625 4.70361
-3.69254 0.00351 4.7085
-3.69685 -0.004725 4.70801
-3.68851 0.000592 4.70996
-3.68496 -0.001032 4.71094
-3.65698 0.004972 4.72217
-3.68092 -0.00395 4.71191
-3.67295 -0.000612 4.71533
-3.66916 -0.002883 4.71631
-3.67679 0.00275 4.71387
-3.66475 0.002078 4.71875
-3.66115 -0.000636 4.71973
-3.65753 -0.004443 4.72168
-3.65315 0.00161 4.72363
-3.64948 -0.003287 4.72607
-3.64131 0.000494 4.729
-3.64514 0.003856 4.72705
-3.63744 -0.003959 4.73096
-3.6331 0.003185 4.73242
-3.62931 0.000914 4.7334
-3.62572 -0.001801 4.73438
-3.61763 -0.001737 4.73926
-3.62175 0.003364 4.73682
-3.61363 0.002337 4.74219
-3.57843 0.001819 4.75684
-3.60963 0.00051 4.74316
-3.606 -0.003296 4.74512
-3.59799 -0.00105 4.74854
-3.59416 -0.004412 4.75049
-3.60207 0.002959 4.74658
-3.59003 0.002288 4.75195
-3.5864 -0.001518 4.75391
-3.56252 -0.003305 4.76416
-3.57018 0.003419 4.76074
-3.57456 -0.002634 4.75879
-3.56659 0.000704 4.76221
-3.55112 -0.004218 4.76953
-3.55859 0.00295 4.76562
-3.55455 3.2e-05 4.76709
-3.54655 0.002279 4.771
-3.54295 -0.000436 4.77246
-3.53888 -0.004445 4.77441
-3.53495 0.00181 4.77588
-3.53136 -0.000905 4.77734
-3.51528 -0.004494 4.78418
-3.52294 0.00223 4.78076
-3.51935 -0.000485 4.78223
-3.51159 0.002409 4.78516
-3.50755 -0.000509 4.78711
-3.49192 -0.003896 4.79346
-3.50352 -0.003427 4.78857
-3.49579 0.000557 4.7915
-3.49959 0.002828 4.79004
-3.47992 -0.003476 4.79834
-3.48762 0.004339 4.79443
-3.48359 0.001421 4.79541
-3.47606 0.004962 4.79883
-3.41715 0.001122 4.82031
-3.41312 -0.001796 4.82178
-3.47203 0.002044 4.80029
-3.46816 -0.002409 4.80273
-3.46002 0.002464 4.80518
-3.46436 -0.00468 4.80371
-3.45236 -0.00426 4.80859
-3.4564 -0.001343 4.80664
-3.44826 0.00353 4.80908
-3.44447 0.00126 4.81055
-3.42098 0.004484 4.81836
-3.4365 0.004597 4.81348
-3.44064 -0.002102 4.81201
-3.42867 -0.000592 4.81641
-3.4325 0.00277 4.81445
-3.42484 -0.003954 4.81836
-3.40908 -0.004714 4.82373
-3.40523 0.003724 4.82422
-3.40095 0.000159 4.82568
-3.39736 -0.002556 4.82715
-3.39357 -0.004826 4.82861
-3.39346 0.004791 4.82861
-3.38923 0.002317 4.82959
-3.38564 -0.000398 4.83106
-3.38164 -0.002224 4.83252
-3.37764 -0.004051 4.83301
-3.37378 0.004387 4.83398
-3.36975 0.001469 4.83545
-3.36599 0.000289 4.83594
-3.35796 -0.004456 4.83838
-3.36192 -0.00372 4.83789
-3.35407 0.002891 4.83936
-3.35007 0.001064 4.84033
-3.34628 -0.001206 4.8418
-3.34228 -0.003033 4.84277
-3.33839 0.004314 4.84375
-3.33015 1.3e-05 4.84619
-3.33439 0.002487 4.84473
-3.3266 -0.001611 4.84717
-3.31867 0.002818 4.84961
-3.31487 0.000547 4.85107
-3.31084 -0.002371 4.85254
-3.30684 -0.004197 4.85352
-3.30274 0.003593 4.85449
-3.30694 0.004976 4.85352
-3.29915 0.000878 4.85596
-3.29512 -0.00204 4.85742
-3.29112 -0.003866 4.8584
-3.28723 0.00348 4.85986
-3.2713 0.004256 4.86426
-3.2794 -0.001708 4.86231
-3.28347 0.002301 4.86035
-3.2752 -0.003091 4.86328
-3.26727 0.001338 4.86572
-3.26351 0.000158 4.8667
-3.25928 -0.002316 4.86816
-3.25572 -0.003939 4.86914
-3.25183 0.003407 4.87012
-3.248 4.5e-05 4.87158
-3.244 -0.001781 4.87305
-3.23976 -0.004255 4.87451
-3.23631 0.003294 4.87549
-3.22828 -0.00145 4.87793
-3.23207 0.000821 4.87646
-3.22404 -0.003924 4.87939
-3.22018 0.004514 4.87988
-3.21659 0.001799 4.88135
-3.21236 -0.000675 4.88281
-3.20412 -0.004976 4.88525
-3.20832 -0.003593 4.88428
-3.20071 0.003665 4.88574
-3.18468 -0.004733 4.89014
-3.19667 0.000747 4.88721
-3.19247 -0.000635 4.88818
-3.18848 -0.002462 4.88916
-3.18103 0.003261 4.89111
-3.17703 0.001434 4.89258
-3.17304 -0.000393 4.89356
-3.16924 -0.002663 4.89453
-3.16115 0.003301 4.89648
-3.1648 -0.004693 4.89551
-3.15739 0.002121 4.89746
-3.15315 -0.000353 4.89893
-3.14516 -0.004006 4.90088
-3.1492 -0.001088 4.89941
-3.14175 0.004634 4.90137
-3.13775 0.002808 4.90234
-3.13372 -0.00011 4.90381
-3.11411 0.001668 4.90869
-3.11012 -0.000159 4.90967
-3.12952 -0.001493 4.90479
-3.12576 -0.002672 4.90576
-3.12132 -0.004702 4.90674
-3.10588 -0.002633 4.91113
-3.10188 -0.004459 4.91211
-3.11815 0.004586 4.90674
-3.09447 0.002355 4.91357
-3.09003 0.000325 4.91504
-3.08228 -0.002681 4.91699
-3.08607 -0.000411 4.91553
-3.07828 -0.004508 4.91748
-3.07487 0.004133 4.91846
-3.07043 0.002103 4.91943
-3.06667 0.000923 4.91992
-3.04311 0.001966 4.92529
-3.06288 -0.001348 4.92139
-3.05868 -0.00273 4.92236
-3.05468 -0.004557 4.92334
-3.04731 0.003348 4.92432
